# .PCD v0.7 - Point Cloud Data file format
VERSION 0.7
FIELDS x y z
SIZE 4 4 4
TYPE F F F
COUNT 1 1 1
WIDTH 1274
HEIGHT 1
VIEWPOINT 0 0 0 1 0 0 0
POINTS 1274
DATA ascii
-0.004015489751 -0.003553247937 0.013
-0.003989760435 -0.003553247937 0.013
-0.003964031119 -0.003553247937 0.013
-0.00363535551 -0.003279921173 0.012
-0.003611605372 -0.003279921173 0.012
-0.003587855234 -0.003279921173 0.012
-0.003564105096 -0.003279921173 0.012
-0.003540354958 -0.003279921173 0.012
-0.00351660482 -0.003279921173 0.012
-0.003492854682 -0.003279921173 0.012
-0.003469104544 -0.003279921173 0.012
-0.003445354407 -0.003279921173 0.012
-0.003421604269 -0.003279921173 0.012
-0.003397854131 -0.003279921173 0.012
-0.003374103993 -0.003279921173 0.012
-0.003350353855 -0.003279921173 0.012
-0.003326603717 -0.003279921173 0.012
-0.003302853579 -0.003279921173 0.012
-0.003279103441 -0.003279921173 0.012
-0.003255353303 -0.003279921173 0.012
-0.003231603165 -0.003279921173 0.012
-0.003207853027 -0.003279921173 0.012
-0.003184102889 -0.003279921173 0.012
-0.003423715481 -0.003553247937 0.013
-0.003397986164 -0.003553247937 0.013
-0.003372256848 -0.003553247937 0.013
-0.003346527532 -0.003553247937 0.013
-0.003320798216 -0.003553247937 0.013
-0.0032950689 -0.003553247937 0.013
-0.003269339584 -0.003553247937 0.013
-0.003243610268 -0.003553247937 0.013
-0.003217880952 -0.003553247937 0.013
-0.003192151636 -0.003553247937 0.013
-0.00316642232 -0.003553247937 0.013
-0.003140693003 -0.003553247937 0.013
-0.003114963687 -0.003553247937 0.013
-0.003089234371 -0.003553247937 0.013
-0.003063505055 -0.003553247937 0.013
-0.003037775739 -0.003553247937 0.013
-0.003012046423 -0.003553247937 0.013
-0.002986317107 -0.003553247937 0.013
-0.002960587791 -0.003553247937 0.013
-0.002934858475 -0.003553247937 0.013
-0.002909129159 -0.003553247937 0.013
-0.002883399842 -0.003553247937 0.013
-0.002857670526 -0.003553247937 0.013
-0.00283194121 -0.003553247937 0.013
-0.002806211894 -0.003553247937 0.013
-0.002780482578 -0.003553247937 0.013
-0.002754753262 -0.003553247937 0.013
-0.002729023946 -0.003553247937 0.013
-0.00270329463 -0.003553247937 0.013
-0.002677565314 -0.003553247937 0.013
-0.002651835998 -0.003553247937 0.013
-0.002626106681 -0.003553247937 0.013
-0.002600377365 -0.003553247937 0.013
-0.002772697899 -0.003826574702 0.014
-0.002744989405 -0.003826574702 0.014
-0.002911372404 -0.004099901466 0.015
-0.002305347786 -0.003279921173 0.012
-0.0001901331373 -0.0002733267644 0.001
-0.0005585243429 -0.0008199802932 0.003
-0.004190977767 -0.006286515581 0.023
-0.004686168409 -0.007106495875 0.026
-0.004099935572 -0.006286515581 0.023
-0.003878135584 -0.006013188817 0.022
-0.004008893376 -0.006286515581 0.023
-0.003791051745 -0.006013188817 0.022
-0.004428875248 -0.007106495875 0.026
-0.004040692261 -0.006559842346 0.024
-0.0001644038212 -0.0002733267644 0.001
-7.929916026e-05 -0.0002733267644 0.001
-7.73199821e-05 -0.0002733267644 0.001
-0.0001467232515 -0.0005466535288 0.002
-0.0001348481826 -0.0005466535288 0.002
-6.544491313e-05 -0.0002733267644 0.001
-6.14865568e-05 -0.0002733267644 0.001
-0.0001190147573 -0.0005466535288 0.002
-0.008839024286 -0.04509891613 0.165
-0.008873594551 -0.04701220348 0.172
-0.008285118468 -0.04564556966 0.167
-0.0002183697667 -0.001366633822 0.005
-8.338955038e-05 -0.0005466535288 0.002
-0.0001509456755 -0.001093307058 0.004
-3.57572407e-05 -0.0002733267644 0.001
0.0001720564663 -0.0002733267644 0.001
0.0001839315352 -0.0002733267644 0.001
0.0009295535669 -0.001366633822 0.005
0.001127339349 -0.001639960586 0.006
0.001139214418 -0.001639960586 0.006
0.001151089487 -0.001639960586 0.006
0.0009691371301 -0.001366633822 0.005
0.000979033021 -0.001366633822 0.005
0.0009889289118 -0.001366633822 0.005
0.0009988248026 -0.001366633822 0.005
0.001210464832 -0.001639960586 0.006
0.001018616584 -0.001366633822 0.005
0.001028512475 -0.001366633822 0.005
0.001038408366 -0.001366633822 0.005
0.001048304257 -0.001366633822 0.005
0.001058200147 -0.001366633822 0.005
0.001068096038 -0.001366633822 0.005
0.001077991929 -0.001366633822 0.005
0.00108788782 -0.001366633822 0.005
0.001097783711 -0.001366633822 0.005
0.001107679601 -0.001366633822 0.005
0.001117575492 -0.001366633822 0.005
0.001127471383 -0.001366633822 0.005
0.001137367274 -0.001366633822 0.005
0.001147263165 -0.001366633822 0.005
0.001157159055 -0.001366633822 0.005
0.001167054946 -0.001366633822 0.005
0.0009415606697 -0.001093307058 0.004
0.0009494773823 -0.001093307058 0.004
0.000957394095 -0.001093307058 0.004
0.0009653108076 -0.001093307058 0.004
0.0009732275203 -0.001093307058 0.004
0.0009811442329 -0.001093307058 0.004
0.0009890609456 -0.001093307058 0.004
0.0009969776582 -0.001093307058 0.004
0.001004894371 -0.001093307058 0.004
0.001012811083 -0.001093307058 0.004
0.001020727796 -0.001093307058 0.004
0.001028644509 -0.001093307058 0.004
0.001036561221 -0.001093307058 0.004
0.001044477934 -0.001093307058 0.004
0.001052394647 -0.001093307058 0.004
0.001060311359 -0.001093307058 0.004
0.001068228072 -0.001093307058 0.004
0.001076144785 -0.001093307058 0.004
0.001084061497 -0.001093307058 0.004
0.00109197821 -0.001093307058 0.004
0.001099894923 -0.001093307058 0.004
0.001107811635 -0.001093307058 0.004
0.001115728348 -0.001093307058 0.004
0.001123645061 -0.001093307058 0.004
0.0002828904433 -0.0002733267644 0.001
0.0008546088644 -0.0008199802932 0.003
0.001147395198 -0.001093307058 0.004
0.001155311911 -0.001093307058 0.004
0.001163228624 -0.001093307058 0.004
0.001463931671 -0.001366633822 0.005
0.001473827561 -0.001366633822 0.005
0.001186978762 -0.001093307058 0.004
0.001493619343 -0.001366633822 0.005
0.001503515234 -0.001366633822 0.005
0.001513411125 -0.001366633822 0.005
0.001523307015 -0.001366633822 0.005
0.001533202906 -0.001366633822 0.005
0.001543098797 -0.001366633822 0.005
0.001552994688 -0.001366633822 0.005
0.001562890579 -0.001366633822 0.005
0.001572786469 -0.001366633822 0.005
0.00158268236 -0.001366633822 0.005
0.001592578251 -0.001366633822 0.005
0.001602474142 -0.001366633822 0.005
0.001612370033 -0.001366633822 0.005
0.001622265923 -0.001366633822 0.005
0.001632161814 -0.001366633822 0.005
0.001642057705 -0.001366633822 0.005
0.001651953596 -0.001366633822 0.005
0.001661849487 -0.001366633822 0.005
0.001671745377 -0.001366633822 0.005
0.001681641268 -0.001366633822 0.005
0.001691537159 -0.001366633822 0.005
0.00170143305 -0.001366633822 0.005
0.001369063153 -0.001093307058 0.004
0.001376979865 -0.001093307058 0.004
0.001384896578 -0.001093307058 0.004
-0.0004137802695 -0.000271347995 0.001
-0.0004078427351 -0.000271347995 0.001
-0.0003959676661 -0.000271347995 0.001
-0.007879769759 -0.0054269599 0.02
-0.008624204815 -0.00596965589 0.022
-0.007410572501 -0.005155611905 0.019
-0.009313222883 -0.00651235188 0.024
-0.008493579056 -0.00596965589 0.022
-0.008450037137 -0.00596965589 0.022
-0.008024381798 -0.005698307895 0.021
-0.007982819057 -0.005698307895 0.021
-0.007941256315 -0.005698307895 0.021
-0.00752351769 -0.0054269599 0.02
-0.007483934126 -0.0054269599 0.02
-0.007072133035 -0.005155611905 0.019
-0.0066642903 -0.00488426391 0.018
-0.005892146749 -0.00434156792 0.016
-0.005494199905 -0.004070219925 0.015
-0.005100211417 -0.00379887193 0.014
-0.005072502923 -0.00379887193 0.014
-0.005044794429 -0.00379887193 0.014
-0.005017085934 -0.00379887193 0.014
-0.00498937744 -0.00379887193 0.014
-0.004607264021 -0.003527523935 0.013
-0.004581534705 -0.003527523935 0.013
-0.004555805389 -0.003527523935 0.013
-0.004530076073 -0.003527523935 0.013
-0.004504346757 -0.003527523935 0.013
-0.004478617441 -0.003527523935 0.013
-0.004452888125 -0.003527523935 0.013
-0.004427158808 -0.003527523935 0.013
-0.004401429492 -0.003527523935 0.013
-0.004375700176 -0.003527523935 0.013
-0.00434997086 -0.003527523935 0.013
-0.004324241544 -0.003527523935 0.013
-0.004298512228 -0.003527523935 0.013
-0.004272782912 -0.003527523935 0.013
-0.004247053596 -0.003527523935 0.013
-0.00422132428 -0.003527523935 0.013
-0.004195594964 -0.003527523935 0.013
-0.004169865647 -0.003527523935 0.013
-0.004144136331 -0.003527523935 0.013
-0.004118407015 -0.003527523935 0.013
-0.004092677699 -0.003527523935 0.013
-0.004066948383 -0.003527523935 0.013
-0.004041219067 -0.003527523935 0.013
-0.004015489751 -0.003527523935 0.013
-0.003989760435 -0.003527523935 0.013
-0.003964031119 -0.003527523935 0.013
-0.00363535551 -0.00325617594 0.012
-0.003611605372 -0.00325617594 0.012
-0.003587855234 -0.00325617594 0.012
-0.003564105096 -0.00325617594 0.012
-0.003540354958 -0.00325617594 0.012
-0.00351660482 -0.00325617594 0.012
-0.003492854682 -0.00325617594 0.012
-0.003469104544 -0.00325617594 0.012
-0.003445354407 -0.00325617594 0.012
-0.003421604269 -0.00325617594 0.012
-0.003397854131 -0.00325617594 0.012
-0.003374103993 -0.00325617594 0.012
-0.003350353855 -0.00325617594 0.012
-0.003326603717 -0.00325617594 0.012
-0.003302853579 -0.00325617594 0.012
-0.003279103441 -0.00325617594 0.012
-0.003255353303 -0.00325617594 0.012
-0.003231603165 -0.00325617594 0.012
-0.003207853027 -0.00325617594 0.012
-0.003184102889 -0.00325617594 0.012
-0.003160352751 -0.00325617594 0.012
-0.003136602613 -0.00325617594 0.012
-0.003112852475 -0.00325617594 0.012
-0.003089102337 -0.00325617594 0.012
-0.003320798216 -0.003527523935 0.013
-0.0032950689 -0.003527523935 0.013
-0.003269339584 -0.003527523935 0.013
-0.003243610268 -0.003527523935 0.013
-0.003217880952 -0.003527523935 0.013
-0.003192151636 -0.003527523935 0.013
-0.00316642232 -0.003527523935 0.013
-0.003140693003 -0.003527523935 0.013
-0.003114963687 -0.003527523935 0.013
-0.003089234371 -0.003527523935 0.013
-0.003063505055 -0.003527523935 0.013
-0.003037775739 -0.003527523935 0.013
-0.003012046423 -0.003527523935 0.013
-0.002986317107 -0.003527523935 0.013
-0.002960587791 -0.003527523935 0.013
-0.002934858475 -0.003527523935 0.013
-0.002909129159 -0.003527523935 0.013
-0.002883399842 -0.003527523935 0.013
-0.002857670526 -0.003527523935 0.013
-0.00283194121 -0.003527523935 0.013
-0.002806211894 -0.003527523935 0.013
-0.002780482578 -0.003527523935 0.013
-0.002754753262 -0.003527523935 0.013
-0.002729023946 -0.003527523935 0.013
-0.00270329463 -0.003527523935 0.013
-0.002677565314 -0.003527523935 0.013
-0.002651835998 -0.003527523935 0.013
-0.002626106681 -0.003527523935 0.013
-0.002600377365 -0.003527523935 0.013
-0.002574648049 -0.003527523935 0.013
-0.002744989405 -0.00379887193 0.014
-0.002717280911 -0.00379887193 0.014
-0.003073797047 -0.00434156792 0.016
-0.0001881539591 -0.000271347995 0.001
-0.004555410616 -0.006783699875 0.025
-0.003784982176 -0.005698307895 0.021
-0.003921677503 -0.00596965589 0.022
-0.003878135584 -0.00596965589 0.022
-0.0043574928 -0.006783699875 0.025
-0.004135692812 -0.00651235188 0.024
-0.003577168469 -0.005698307895 0.021
-0.004040692261 -0.00651235188 0.024
-0.0001644038212 -0.000271347995 0.001
-0.000162424643 -0.000271347995 0.001
-8.127833842e-05 -0.000271347995 0.001
-7.534080393e-05 -0.000271347995 0.001
-6.544491313e-05 -0.000271347995 0.001
-0.0001844596704 -0.000814043985 0.003
-0.009387784772 -0.04585781115 0.169
-0.009374722728 -0.04748589912 0.175
-0.008770413219 -0.04612915915 0.17
-0.008533175907 -0.04667185514 0.172
-0.0001985779851 -0.001356739975 0.005
0.0001839315352 -0.000271347995 0.001
0.0005577321401 -0.000814043985 0.003
0.001127339349 -0.00162808797 0.006
0.001139214418 -0.00162808797 0.006
0.001151089487 -0.00162808797 0.006
0.001162964556 -0.00162808797 0.006
0.000979033021 -0.001356739975 0.005
0.0009889289118 -0.001356739975 0.005
0.0009988248026 -0.001356739975 0.005
0.001210464832 -0.00162808797 0.006
0.001018616584 -0.001356739975 0.005
0.001028512475 -0.001356739975 0.005
0.001038408366 -0.001356739975 0.005
0.001048304257 -0.001356739975 0.005
0.001058200147 -0.001356739975 0.005
0.001068096038 -0.001356739975 0.005
0.001077991929 -0.001356739975 0.005
0.00108788782 -0.001356739975 0.005
0.001097783711 -0.001356739975 0.005
0.001107679601 -0.001356739975 0.005
0.001117575492 -0.001356739975 0.005
0.001127471383 -0.001356739975 0.005
0.001137367274 -0.001356739975 0.005
0.001147263165 -0.001356739975 0.005
0.001157159055 -0.001356739975 0.005
0.001167054946 -0.001356739975 0.005
0.001176950837 -0.001356739975 0.005
0.0009494773823 -0.00108539198 0.004
0.000957394095 -0.00108539198 0.004
0.0009653108076 -0.00108539198 0.004
0.0009732275203 -0.00108539198 0.004
0.0009811442329 -0.00108539198 0.004
0.0009890609456 -0.00108539198 0.004
0.0009969776582 -0.00108539198 0.004
0.001004894371 -0.00108539198 0.004
0.001012811083 -0.00108539198 0.004
0.001020727796 -0.00108539198 0.004
0.001028644509 -0.00108539198 0.004
0.001036561221 -0.00108539198 0.004
0.001044477934 -0.00108539198 0.004
0.001052394647 -0.00108539198 0.004
0.001060311359 -0.00108539198 0.004
0.001068228072 -0.00108539198 0.004
0.001076144785 -0.00108539198 0.004
0.001084061497 -0.00108539198 0.004
0.00109197821 -0.00108539198 0.004
0.001099894923 -0.00108539198 0.004
0.001107811635 -0.00108539198 0.004
0.001115728348 -0.00108539198 0.004
0.001123645061 -0.00108539198 0.004
0.0002848696215 -0.000271347995 0.001
0.0008605463989 -0.000814043985 0.003
0.001155311911 -0.00108539198 0.004
0.00145403578 -0.001356739975 0.005
0.001463931671 -0.001356739975 0.005
0.001473827561 -0.001356739975 0.005
0.001186978762 -0.00108539198 0.004
0.001493619343 -0.001356739975 0.005
0.001503515234 -0.001356739975 0.005
0.001513411125 -0.001356739975 0.005
0.001523307015 -0.001356739975 0.005
0.001533202906 -0.001356739975 0.005
0.001543098797 -0.001356739975 0.005
0.001552994688 -0.001356739975 0.005
0.001562890579 -0.001356739975 0.005
0.001572786469 -0.001356739975 0.005
0.00158268236 -0.001356739975 0.005
0.001592578251 -0.001356739975 0.005
0.001602474142 -0.001356739975 0.005
0.001612370033 -0.001356739975 0.005
0.001622265923 -0.001356739975 0.005
0.001632161814 -0.001356739975 0.005
0.001642057705 -0.001356739975 0.005
0.001651953596 -0.001356739975 0.005
0.001661849487 -0.001356739975 0.005
0.001671745377 -0.001356739975 0.005
0.001681641268 -0.001356739975 0.005
0.001691537159 -0.001356739975 0.005
0.00170143305 -0.001356739975 0.005
0.001369063153 -0.00108539198 0.004
0.001376979865 -0.00108539198 0.004
0.001384896578 -0.00108539198 0.004
-0.0004098219132 -0.0002693692256 0.001
-0.0008156854701 -0.0005387384512 0.002
-0.009503223986 -0.006464861414 0.024
-0.009849712198 -0.00673423064 0.025
-0.009800232744 -0.00673423064 0.025
-0.008970693027 -0.006195492188 0.023
-0.008149070022 -0.005656753737 0.021
-0.007721435506 -0.005387384512 0.02
-0.007681851943 -0.005387384512 0.02
-0.008024381798 -0.005656753737 0.021
-0.007982819057 -0.005656753737 0.021
-0.007941256315 -0.005656753737 0.021
-0.00752351769 -0.005387384512 0.02
-0.007483934126 -0.005387384512 0.02
-0.007072133035 -0.005118015286 0.019
-0.0066642903 -0.00484864606 0.018
-0.005892146749 -0.004309907609 0.016
-0.005494199905 -0.004040538384 0.015
-0.005100211417 -0.003771169158 0.014
-0.005072502923 -0.003771169158 0.014
-0.005044794429 -0.003771169158 0.014
-0.005017085934 -0.003771169158 0.014
-0.00498937744 -0.003771169158 0.014
-0.004607264021 -0.003501799933 0.013
-0.004581534705 -0.003501799933 0.013
-0.004555805389 -0.003501799933 0.013
-0.004530076073 -0.003501799933 0.013
-0.004504346757 -0.003501799933 0.013
-0.004478617441 -0.003501799933 0.013
-0.004452888125 -0.003501799933 0.013
-0.004427158808 -0.003501799933 0.013
-0.004401429492 -0.003501799933 0.013
-0.004375700176 -0.003501799933 0.013
-0.00434997086 -0.003501799933 0.013
-0.004324241544 -0.003501799933 0.013
-0.004298512228 -0.003501799933 0.013
-0.004272782912 -0.003501799933 0.013
-0.004247053596 -0.003501799933 0.013
-0.00422132428 -0.003501799933 0.013
-0.004195594964 -0.003501799933 0.013
-0.004169865647 -0.003501799933 0.013
-0.004144136331 -0.003501799933 0.013
-0.004118407015 -0.003501799933 0.013
-0.004092677699 -0.003501799933 0.013
-0.004066948383 -0.003501799933 0.013
-0.004041219067 -0.003501799933 0.013
-0.004015489751 -0.003501799933 0.013
-0.003682855786 -0.003232430707 0.012
-0.003659105648 -0.003232430707 0.012
-0.00363535551 -0.003232430707 0.012
-0.003611605372 -0.003232430707 0.012
-0.003587855234 -0.003232430707 0.012
-0.003564105096 -0.003232430707 0.012
-0.003540354958 -0.003232430707 0.012
-0.00351660482 -0.003232430707 0.012
-0.003492854682 -0.003232430707 0.012
-0.003469104544 -0.003232430707 0.012
-0.003445354407 -0.003232430707 0.012
-0.003421604269 -0.003232430707 0.012
-0.003397854131 -0.003232430707 0.012
-0.003374103993 -0.003232430707 0.012
-0.003350353855 -0.003232430707 0.012
-0.003326603717 -0.003232430707 0.012
-0.003302853579 -0.003232430707 0.012
-0.003279103441 -0.003232430707 0.012
-0.003255353303 -0.003232430707 0.012
-0.003231603165 -0.003232430707 0.012
-0.003207853027 -0.003232430707 0.012
-0.003184102889 -0.003232430707 0.012
-0.003160352751 -0.003232430707 0.012
-0.003136602613 -0.003232430707 0.012
-0.003112852475 -0.003232430707 0.012
-0.003089102337 -0.003232430707 0.012
-0.0030653522 -0.003232430707 0.012
-0.0032950689 -0.003501799933 0.013
-0.003269339584 -0.003501799933 0.013
-0.003243610268 -0.003501799933 0.013
-0.003217880952 -0.003501799933 0.013
-0.003192151636 -0.003501799933 0.013
-0.00316642232 -0.003501799933 0.013
-0.003140693003 -0.003501799933 0.013
-0.003114963687 -0.003501799933 0.013
-0.003089234371 -0.003501799933 0.013
-0.003063505055 -0.003501799933 0.013
-0.003037775739 -0.003501799933 0.013
-0.003012046423 -0.003501799933 0.013
-0.002986317107 -0.003501799933 0.013
-0.002960587791 -0.003501799933 0.013
-0.002934858475 -0.003501799933 0.013
-0.002909129159 -0.003501799933 0.013
-0.002883399842 -0.003501799933 0.013
-0.002857670526 -0.003501799933 0.013
-0.00283194121 -0.003501799933 0.013
-0.002806211894 -0.003501799933 0.013
-0.002780482578 -0.003501799933 0.013
-0.002754753262 -0.003501799933 0.013
-0.002729023946 -0.003501799933 0.013
-0.00270329463 -0.003501799933 0.013
-0.002677565314 -0.003501799933 0.013
-0.002651835998 -0.003501799933 0.013
-0.002626106681 -0.003501799933 0.013
-0.002600377365 -0.003501799933 0.013
-0.002574648049 -0.003501799933 0.013
-0.002548918733 -0.003501799933 0.013
-0.002523189417 -0.003501799933 0.013
-0.002305347786 -0.003232430707 0.012
-0.0001881539591 -0.0002693692256 0.001
-0.0005585243429 -0.0008081076767 0.003
-0.004866405655 -0.007272969091 0.027
-0.003921677503 -0.005926122963 0.022
-0.004054414474 -0.006195492188 0.023
-0.003660293952 -0.005656753737 0.021
-0.00448033388 -0.007003599865 0.026
-0.003917851181 -0.006195492188 0.023
-0.004209054438 -0.00673423064 0.025
-0.0001663829994 -0.0002693692256 0.001
-7.929916026e-05 -0.0002693692256 0.001
-0.0001427648952 -0.0005387384512 0.002
-6.742409129e-05 -0.0002693692256 0.001
-6.544491313e-05 -0.0002693692256 0.001
-0.0001190147573 -0.0005387384512 0.002
-0.009722265881 -0.04552339912 0.169
-0.009443333794 -0.04579276835 0.17
-0.009106873507 -0.04579276835 0.17
-0.008667231887 -0.0452540299 0.168
-9.526461935e-05 -0.0005387384512 0.002
-4.565313151e-05 -0.0002693692256 0.001
-0.0001250843256 -0.0008081076767 0.003
-0.0001072717221 -0.0008081076767 0.003
0.0001859107134 -0.0002693692256 0.001
0.001127339349 -0.001616215353 0.006
0.001139214418 -0.001616215353 0.006
0.001151089487 -0.001616215353 0.006
0.001162964556 -0.001616215353 0.006
0.000979033021 -0.001346846128 0.005
0.0009889289118 -0.001346846128 0.005
0.0009988248026 -0.001346846128 0.005
0.001008720693 -0.001346846128 0.005
0.001018616584 -0.001346846128 0.005
0.001028512475 -0.001346846128 0.005
0.001038408366 -0.001346846128 0.005
0.001048304257 -0.001346846128 0.005
0.001058200147 -0.001346846128 0.005
0.001068096038 -0.001346846128 0.005
0.001077991929 -0.001346846128 0.005
0.00108788782 -0.001346846128 0.005
0.001097783711 -0.001346846128 0.005
0.001107679601 -0.001346846128 0.005
0.001117575492 -0.001346846128 0.005
0.001127471383 -0.001346846128 0.005
0.001137367274 -0.001346846128 0.005
0.001147263165 -0.001346846128 0.005
0.001157159055 -0.001346846128 0.005
0.001167054946 -0.001346846128 0.005
0.001176950837 -0.001346846128 0.005
0.0009494773823 -0.001077476902 0.004
0.000957394095 -0.001077476902 0.004
0.0009653108076 -0.001077476902 0.004
0.0009732275203 -0.001077476902 0.004
0.0009811442329 -0.001077476902 0.004
0.0009890609456 -0.001077476902 0.004
0.0009969776582 -0.001077476902 0.004
0.001004894371 -0.001077476902 0.004
0.001012811083 -0.001077476902 0.004
0.001020727796 -0.001077476902 0.004
0.001028644509 -0.001077476902 0.004
0.001036561221 -0.001077476902 0.004
0.001044477934 -0.001077476902 0.004
0.001052394647 -0.001077476902 0.004
0.001060311359 -0.001077476902 0.004
0.001068228072 -0.001077476902 0.004
0.001076144785 -0.001077476902 0.004
0.001084061497 -0.001077476902 0.004
0.00109197821 -0.001077476902 0.004
0.001099894923 -0.001077476902 0.004
0.001107811635 -0.001077476902 0.004
0.001115728348 -0.001077476902 0.004
0.001123645061 -0.001077476902 0.004
0.0002848696215 -0.0002693692256 0.001
0.0008605463989 -0.0008081076767 0.003
0.001155311911 -0.001077476902 0.004
0.00145403578 -0.001346846128 0.005
0.001463931671 -0.001346846128 0.005
0.001473827561 -0.001346846128 0.005
0.001186978762 -0.001077476902 0.004
0.001493619343 -0.001346846128 0.005
0.001503515234 -0.001346846128 0.005
0.001513411125 -0.001346846128 0.005
0.001523307015 -0.001346846128 0.005
0.001533202906 -0.001346846128 0.005
0.001543098797 -0.001346846128 0.005
0.001552994688 -0.001346846128 0.005
0.001562890579 -0.001346846128 0.005
0.001572786469 -0.001346846128 0.005
0.00158268236 -0.001346846128 0.005
0.001592578251 -0.001346846128 0.005
0.001602474142 -0.001346846128 0.005
0.001612370033 -0.001346846128 0.005
0.001622265923 -0.001346846128 0.005
0.001632161814 -0.001346846128 0.005
0.001642057705 -0.001346846128 0.005
0.001651953596 -0.001346846128 0.005
0.001661849487 -0.001346846128 0.005
0.001671745377 -0.001346846128 0.005
0.001681641268 -0.001346846128 0.005
0.001691537159 -0.001346846128 0.005
0.00170143305 -0.001346846128 0.005
0.001369063153 -0.001077476902 0.004
0.001376979865 -0.001077476902 0.004
0.001384896578 -0.001077476902 0.004
0.0003482033226 -0.0002693692256 0.001
0.0003521616789 -0.0002693692256 0.001
0.0003620575698 -0.0002693692256 0.001
-0.0008038104012 -0.0005347809123 0.002
-0.0007998520448 -0.0005347809123 0.002
-0.00910725632 -0.006149980492 0.023
-0.007879769759 -0.005347809123 0.02
-0.008232195505 -0.00561519958 0.021
-0.008190632764 -0.00561519958 0.021
-0.008537120976 -0.005882590036 0.022
-0.008493579056 -0.005882590036 0.022
-0.008834129734 -0.006149980492 0.023
-0.008024381798 -0.00561519958 0.021
-0.007982819057 -0.00561519958 0.021
-0.007941256315 -0.00561519958 0.021
-0.007899693574 -0.00561519958 0.021
-0.007483934126 -0.005347809123 0.02
-0.007072133035 -0.005080418667 0.019
-0.0066642903 -0.004813028211 0.018
-0.005892146749 -0.004278247299 0.016
-0.005494199905 -0.004010856843 0.015
-0.005100211417 -0.003743466386 0.014
-0.005072502923 -0.003743466386 0.014
-0.005044794429 -0.003743466386 0.014
-0.005017085934 -0.003743466386 0.014
-0.004632993337 -0.00347607593 0.013
-0.004607264021 -0.00347607593 0.013
-0.004581534705 -0.00347607593 0.013
-0.004555805389 -0.00347607593 0.013
-0.004530076073 -0.00347607593 0.013
-0.004504346757 -0.00347607593 0.013
-0.004478617441 -0.00347607593 0.013
-0.004452888125 -0.00347607593 0.013
-0.004427158808 -0.00347607593 0.013
-0.004401429492 -0.00347607593 0.013
-0.004375700176 -0.00347607593 0.013
-0.00434997086 -0.00347607593 0.013
-0.004324241544 -0.00347607593 0.013
-0.004298512228 -0.00347607593 0.013
-0.004272782912 -0.00347607593 0.013
-0.004247053596 -0.00347607593 0.013
-0.00422132428 -0.00347607593 0.013
-0.004195594964 -0.00347607593 0.013
-0.004169865647 -0.00347607593 0.013
-0.004144136331 -0.00347607593 0.013
-0.004118407015 -0.00347607593 0.013
-0.004092677699 -0.00347607593 0.013
-0.004066948383 -0.00347607593 0.013
-0.004041219067 -0.00347607593 0.013
-0.003706605924 -0.003208685474 0.012
-0.003682855786 -0.003208685474 0.012
-0.003659105648 -0.003208685474 0.012
-0.00363535551 -0.003208685474 0.012
-0.003611605372 -0.003208685474 0.012
-0.003587855234 -0.003208685474 0.012
-0.003564105096 -0.003208685474 0.012
-0.003540354958 -0.003208685474 0.012
-0.00351660482 -0.003208685474 0.012
-0.003492854682 -0.003208685474 0.012
-0.003469104544 -0.003208685474 0.012
-0.003445354407 -0.003208685474 0.012
-0.003421604269 -0.003208685474 0.012
-0.003397854131 -0.003208685474 0.012
-0.003374103993 -0.003208685474 0.012
-0.003350353855 -0.003208685474 0.012
-0.003326603717 -0.003208685474 0.012
-0.003302853579 -0.003208685474 0.012
-0.003279103441 -0.003208685474 0.012
-0.003255353303 -0.003208685474 0.012
-0.003231603165 -0.003208685474 0.012
-0.003207853027 -0.003208685474 0.012
-0.003184102889 -0.003208685474 0.012
-0.003160352751 -0.003208685474 0.012
-0.003136602613 -0.003208685474 0.012
-0.003112852475 -0.003208685474 0.012
-0.003089102337 -0.003208685474 0.012
-0.0030653522 -0.003208685474 0.012
-0.003041602062 -0.003208685474 0.012
-0.003017851924 -0.003208685474 0.012
-0.003243610268 -0.00347607593 0.013
-0.003217880952 -0.00347607593 0.013
-0.003192151636 -0.00347607593 0.013
-0.00316642232 -0.00347607593 0.013
-0.003140693003 -0.00347607593 0.013
-0.003114963687 -0.00347607593 0.013
-0.003089234371 -0.00347607593 0.013
-0.003063505055 -0.00347607593 0.013
-0.003037775739 -0.00347607593 0.013
-0.003012046423 -0.00347607593 0.013
-0.002986317107 -0.00347607593 0.013
-0.002960587791 -0.00347607593 0.013
-0.002934858475 -0.00347607593 0.013
-0.002909129159 -0.00347607593 0.013
-0.002883399842 -0.00347607593 0.013
-0.002857670526 -0.00347607593 0.013
-0.00283194121 -0.00347607593 0.013
-0.002806211894 -0.00347607593 0.013
-0.002780482578 -0.00347607593 0.013
-0.002754753262 -0.00347607593 0.013
-0.002729023946 -0.00347607593 0.013
-0.00270329463 -0.00347607593 0.013
-0.002677565314 -0.00347607593 0.013
-0.002651835998 -0.00347607593 0.013
-0.002626106681 -0.00347607593 0.013
-0.002600377365 -0.00347607593 0.013
-0.002574648049 -0.00347607593 0.013
-0.002548918733 -0.00347607593 0.013
-0.002523189417 -0.00347607593 0.013
-0.002497460101 -0.00347607593 0.013
-0.00209146451 -0.002941295018 0.011
-0.0009209780141 -0.001336952281 0.005
-0.003424507683 -0.005080418667 0.019
-0.00427819364 -0.006417370948 0.024
-0.004583251144 -0.00695215186 0.026
-0.003660293952 -0.00561519958 0.021
-0.003963372278 -0.006149980492 0.023
-0.004088192536 -0.006417370948 0.024
-0.003703967906 -0.005882590036 0.022
-0.0003288076424 -0.0005347809123 0.002
-0.0001903972049 -0.0008021713685 0.003
-0.01057568777 -0.04599115846 0.172
-0.009937732233 -0.04465420618 0.167
-0.01000990688 -0.04652593937 0.174
-0.009498882817 -0.045723768 0.171
-0.009053303663 -0.04518898709 0.169
-0.008873594551 -0.04599115846 0.172
-4.763230967e-05 -0.0002673904562 0.001
-4.169477519e-05 -0.0002673904562 0.001
-3.971559703e-05 -0.0002673904562 0.001
-3.57572407e-05 -0.0002673904562 0.001
0.001127339349 -0.001604342737 0.006
0.001139214418 -0.001604342737 0.006
0.001151089487 -0.001604342737 0.006
0.001162964556 -0.001604342737 0.006
0.000979033021 -0.001336952281 0.005
0.0009889289118 -0.001336952281 0.005
0.0009988248026 -0.001336952281 0.005
0.001008720693 -0.001336952281 0.005
0.001018616584 -0.001336952281 0.005
0.001028512475 -0.001336952281 0.005
0.001038408366 -0.001336952281 0.005
0.001048304257 -0.001336952281 0.005
0.001058200147 -0.001336952281 0.005
0.001068096038 -0.001336952281 0.005
0.001077991929 -0.001336952281 0.005
0.00108788782 -0.001336952281 0.005
0.001097783711 -0.001336952281 0.005
0.001107679601 -0.001336952281 0.005
0.001117575492 -0.001336952281 0.005
0.001127471383 -0.001336952281 0.005
0.001137367274 -0.001336952281 0.005
0.001147263165 -0.001336952281 0.005
0.001157159055 -0.001336952281 0.005
0.001167054946 -0.001336952281 0.005
0.001176950837 -0.001336952281 0.005
0.0009494773823 -0.001069561825 0.004
0.000957394095 -0.001069561825 0.004
0.0009653108076 -0.001069561825 0.004
0.0009732275203 -0.001069561825 0.004
0.0009811442329 -0.001069561825 0.004
0.0009890609456 -0.001069561825 0.004
0.0009969776582 -0.001069561825 0.004
0.001004894371 -0.001069561825 0.004
0.001012811083 -0.001069561825 0.004
0.001020727796 -0.001069561825 0.004
0.001028644509 -0.001069561825 0.004
0.001036561221 -0.001069561825 0.004
0.001044477934 -0.001069561825 0.004
0.001052394647 -0.001069561825 0.004
0.001060311359 -0.001069561825 0.004
0.001068228072 -0.001069561825 0.004
0.001076144785 -0.001069561825 0.004
0.001084061497 -0.001069561825 0.004
0.00109197821 -0.001069561825 0.004
0.001099894923 -0.001069561825 0.004
0.001107811635 -0.001069561825 0.004
0.001115728348 -0.001069561825 0.004
0.001123645061 -0.001069561825 0.004
0.0005657808866 -0.0005347809123 0.002
0.0005697392429 -0.0005347809123 0.002
0.0008605463989 -0.0008021713685 0.003
0.001155311911 -0.001069561825 0.004
0.00145403578 -0.001336952281 0.005
0.001463931671 -0.001336952281 0.005
0.001473827561 -0.001336952281 0.005
0.001483723452 -0.001336952281 0.005
0.001493619343 -0.001336952281 0.005
0.001503515234 -0.001336952281 0.005
0.001513411125 -0.001336952281 0.005
0.001523307015 -0.001336952281 0.005
0.001533202906 -0.001336952281 0.005
0.001543098797 -0.001336952281 0.005
0.001552994688 -0.001336952281 0.005
0.001562890579 -0.001336952281 0.005
0.001572786469 -0.001336952281 0.005
0.00158268236 -0.001336952281 0.005
0.001592578251 -0.001336952281 0.005
0.001602474142 -0.001336952281 0.005
0.001612370033 -0.001336952281 0.005
0.001622265923 -0.001336952281 0.005
0.001632161814 -0.001336952281 0.005
0.001642057705 -0.001336952281 0.005
0.001651953596 -0.001336952281 0.005
0.001661849487 -0.001336952281 0.005
0.001671745377 -0.001336952281 0.005
0.001681641268 -0.001336952281 0.005
0.001691537159 -0.001336952281 0.005
0.00170143305 -0.001336952281 0.005
0.001369063153 -0.001069561825 0.004
0.001376979865 -0.001069561825 0.004
0.001384896578 -0.001069561825 0.004
0.0003482033226 -0.0002673904562 0.001
0.0003521616789 -0.0002673904562 0.001
0.001448230279 -0.001069561825 0.004
0.0007280734958 -0.0005347809123 0.002
-0.0004118010914 -0.0002654116868 0.001
-0.0004058635569 -0.0002654116868 0.001
-0.0004038843787 -0.0002654116868 0.001
-0.009152777418 -0.006104468795 0.023
-0.00910725632 -0.006104468795 0.023
-0.009849712198 -0.006635292169 0.025
-0.009800232744 -0.006635292169 0.025
-0.007800602632 -0.005308233735 0.02
-0.009313222883 -0.006369880482 0.024
-0.007721435506 -0.005308233735 0.02
-0.00806594454 -0.005573645422 0.021
-0.008024381798 -0.005573645422 0.021
-0.007982819057 -0.005573645422 0.021
-0.007941256315 -0.005573645422 0.021
-0.007899693574 -0.005573645422 0.021
-0.007483934126 -0.005308233735 0.02
-0.007072133035 -0.005042822048 0.019
-0.00629405195 -0.004511998675 0.017
-0.005892146749 -0.004246586988 0.016
-0.005494199905 -0.003981175301 0.015
-0.005100211417 -0.003715763615 0.014
-0.005072502923 -0.003715763615 0.014
-0.005044794429 -0.003715763615 0.014
-0.005017085934 -0.003715763615 0.014
-0.004632993337 -0.003450351928 0.013
-0.004607264021 -0.003450351928 0.013
-0.004581534705 -0.003450351928 0.013
-0.004555805389 -0.003450351928 0.013
-0.004530076073 -0.003450351928 0.013
-0.004504346757 -0.003450351928 0.013
-0.004478617441 -0.003450351928 0.013
-0.004452888125 -0.003450351928 0.013
-0.004427158808 -0.003450351928 0.013
-0.004401429492 -0.003450351928 0.013
-0.004375700176 -0.003450351928 0.013
-0.00434997086 -0.003450351928 0.013
-0.004324241544 -0.003450351928 0.013
-0.004298512228 -0.003450351928 0.013
-0.004272782912 -0.003450351928 0.013
-0.004247053596 -0.003450351928 0.013
-0.00422132428 -0.003450351928 0.013
-0.004195594964 -0.003450351928 0.013
-0.004169865647 -0.003450351928 0.013
-0.004144136331 -0.003450351928 0.013
-0.004118407015 -0.003450351928 0.013
-0.004092677699 -0.003450351928 0.013
-0.004066948383 -0.003450351928 0.013
-0.003730356062 -0.003184940241 0.012
-0.003706605924 -0.003184940241 0.012
-0.003682855786 -0.003184940241 0.012
-0.003659105648 -0.003184940241 0.012
-0.00363535551 -0.003184940241 0.012
-0.003611605372 -0.003184940241 0.012
-0.003587855234 -0.003184940241 0.012
-0.003564105096 -0.003184940241 0.012
-0.003540354958 -0.003184940241 0.012
-0.00351660482 -0.003184940241 0.012
-0.003492854682 -0.003184940241 0.012
-0.003469104544 -0.003184940241 0.012
-0.003445354407 -0.003184940241 0.012
-0.003421604269 -0.003184940241 0.012
-0.003397854131 -0.003184940241 0.012
-0.003374103993 -0.003184940241 0.012
-0.003350353855 -0.003184940241 0.012
-0.003326603717 -0.003184940241 0.012
-0.003302853579 -0.003184940241 0.012
-0.003279103441 -0.003184940241 0.012
-0.003255353303 -0.003184940241 0.012
-0.003231603165 -0.003184940241 0.012
-0.003207853027 -0.003184940241 0.012
-0.003184102889 -0.003184940241 0.012
-0.003160352751 -0.003184940241 0.012
-0.003136602613 -0.003184940241 0.012
-0.003112852475 -0.003184940241 0.012
-0.003089102337 -0.003184940241 0.012
-0.0030653522 -0.003184940241 0.012
-0.003041602062 -0.003184940241 0.012
-0.003017851924 -0.003184940241 0.012
-0.002994101786 -0.003184940241 0.012
-0.003217880952 -0.003450351928 0.013
-0.003192151636 -0.003450351928 0.013
-0.00316642232 -0.003450351928 0.013
-0.003140693003 -0.003450351928 0.013
-0.003114963687 -0.003450351928 0.013
-0.003089234371 -0.003450351928 0.013
-0.003063505055 -0.003450351928 0.013
-0.003037775739 -0.003450351928 0.013
-0.003012046423 -0.003450351928 0.013
-0.002986317107 -0.003450351928 0.013
-0.002960587791 -0.003450351928 0.013
-0.002934858475 -0.003450351928 0.013
-0.002909129159 -0.003450351928 0.013
-0.002883399842 -0.003450351928 0.013
-0.002857670526 -0.003450351928 0.013
-0.00283194121 -0.003450351928 0.013
-0.002806211894 -0.003450351928 0.013
-0.002780482578 -0.003450351928 0.013
-0.002754753262 -0.003450351928 0.013
-0.002729023946 -0.003450351928 0.013
-0.00270329463 -0.003450351928 0.013
-0.002677565314 -0.003450351928 0.013
-0.002651835998 -0.003450351928 0.013
-0.002626106681 -0.003450351928 0.013
-0.002600377365 -0.003450351928 0.013
-0.002574648049 -0.003450351928 0.013
-0.002548918733 -0.003450351928 0.013
-0.002523189417 -0.003450351928 0.013
-0.00211323547 -0.002919528554 0.011
-0.003232263334 -0.004511998675 0.017
-0.003010463346 -0.004246586988 0.016
-0.0003644328493 -0.0005308233735 0.002
-0.00427819364 -0.006369880482 0.024
-0.003173020023 -0.004777410362 0.018
-0.005054691648 -0.007696938916 0.029
-0.003618731211 -0.005573645422 0.021
-0.004088192536 -0.006369880482 0.024
-0.004377416616 -0.006900703856 0.026
-0.0001644038212 -0.0002654116868 0.001
-0.0003248492861 -0.0005308233735 0.002
-8.127833842e-05 -0.0002654116868 0.001
-0.0001585983205 -0.0005308233735 0.002
-0.0002260224118 -0.0007962350603 0.003
-0.0002141473428 -0.0007962350603 0.003
-0.0001348481826 -0.0005308233735 0.002
-0.01078917494 -0.04511998675 0.17
-0.01051420121 -0.04538539844 0.171
-0.01011625437 -0.04511998675 0.17
-0.00933223575 -0.04458916338 0.168
-0.009053303663 -0.04485457506 0.169
-0.008770413219 -0.04511998675 0.17
-9.922297567e-05 -0.0005308233735 0.002
-9.130626302e-05 -0.0005308233735 0.002
-3.773641887e-05 -0.0002654116868 0.001
0.001127339349 -0.001592470121 0.006
0.001139214418 -0.001592470121 0.006
0.001151089487 -0.001592470121 0.006
0.001162964556 -0.001592470121 0.006
0.000979033021 -0.001327058434 0.005
0.0009889289118 -0.001327058434 0.005
0.0009988248026 -0.001327058434 0.005
0.001008720693 -0.001327058434 0.005
0.001018616584 -0.001327058434 0.005
0.001028512475 -0.001327058434 0.005
0.001038408366 -0.001327058434 0.005
0.001048304257 -0.001327058434 0.005
0.001058200147 -0.001327058434 0.005
0.001068096038 -0.001327058434 0.005
0.001077991929 -0.001327058434 0.005
0.00108788782 -0.001327058434 0.005
0.001097783711 -0.001327058434 0.005
0.001107679601 -0.001327058434 0.005
0.001117575492 -0.001327058434 0.005
0.001127471383 -0.001327058434 0.005
0.001137367274 -0.001327058434 0.005
0.001147263165 -0.001327058434 0.005
0.001157159055 -0.001327058434 0.005
0.001167054946 -0.001327058434 0.005
0.001176950837 -0.001327058434 0.005
0.0009494773823 -0.001061646747 0.004
0.000957394095 -0.001061646747 0.004
0.0009653108076 -0.001061646747 0.004
0.0009732275203 -0.001061646747 0.004
0.0009811442329 -0.001061646747 0.004
0.0009890609456 -0.001061646747 0.004
0.0009969776582 -0.001061646747 0.004
0.001004894371 -0.001061646747 0.004
0.001012811083 -0.001061646747 0.004
0.001020727796 -0.001061646747 0.004
0.001028644509 -0.001061646747 0.004
0.001036561221 -0.001061646747 0.004
0.001044477934 -0.001061646747 0.004
0.001052394647 -0.001061646747 0.004
0.001060311359 -0.001061646747 0.004
0.001068228072 -0.001061646747 0.004
0.001076144785 -0.001061646747 0.004
0.001084061497 -0.001061646747 0.004
0.00109197821 -0.001061646747 0.004
0.001099894923 -0.001061646747 0.004
0.001107811635 -0.001061646747 0.004
0.001115728348 -0.001061646747 0.004
0.001123645061 -0.001061646747 0.004
0.001131561773 -0.001061646747 0.004
0.0008546088644 -0.0007962350603 0.003
0.0008605463989 -0.0007962350603 0.003
0.001155311911 -0.001061646747 0.004
0.00145403578 -0.001327058434 0.005
0.001463931671 -0.001327058434 0.005
0.001473827561 -0.001327058434 0.005
0.001483723452 -0.001327058434 0.005
0.001493619343 -0.001327058434 0.005
0.001503515234 -0.001327058434 0.005
0.001513411125 -0.001327058434 0.005
0.001523307015 -0.001327058434 0.005
0.001533202906 -0.001327058434 0.005
0.001543098797 -0.001327058434 0.005
0.001552994688 -0.001327058434 0.005
0.001562890579 -0.001327058434 0.005
0.001572786469 -0.001327058434 0.005
0.00158268236 -0.001327058434 0.005
0.001592578251 -0.001327058434 0.005
0.001602474142 -0.001327058434 0.005
0.001612370033 -0.001327058434 0.005
0.001622265923 -0.001327058434 0.005
0.001632161814 -0.001327058434 0.005
0.001642057705 -0.001327058434 0.005
0.001651953596 -0.001327058434 0.005
0.001661849487 -0.001327058434 0.005
0.001671745377 -0.001327058434 0.005
0.001681641268 -0.001327058434 0.005
0.001691537159 -0.001327058434 0.005
0.00170143305 -0.001327058434 0.005
0.001369063153 -0.001061646747 0.004
0.001376979865 -0.001061646747 0.004
0.001384896578 -0.001061646747 0.004
0.0003521616789 -0.0002654116868 0.001
0.0003580992134 -0.0002654116868 0.001
0.002172345419 -0.001592470121 0.006
0.001456146992 -0.001061646747 0.004
0.0007320318522 -0.0005308233735 0.002
-0.0008236021828 -0.0005268658347 0.002
-0.001217590671 -0.000790298752 0.003
-0.001199778067 -0.000790298752 0.003
-0.01034661795 -0.006849255851 0.026
-0.007523385656 -0.00500522543 0.019
-0.008667746735 -0.005795524182 0.022
-0.008624204815 -0.005795524182 0.022
-0.007800602632 -0.005268658347 0.02
-0.009313222883 -0.006322390016 0.024
-0.007721435506 -0.005268658347 0.02
-0.00806594454 -0.005532091264 0.021
-0.008024381798 -0.005532091264 0.021
-0.007982819057 -0.005532091264 0.021
-0.007941256315 -0.005532091264 0.021
-0.007899693574 -0.005532091264 0.021
-0.007483934126 -0.005268658347 0.02
-0.007072133035 -0.00500522543 0.019
-0.00629405195 -0.004478359595 0.017
-0.005523887578 -0.00395149376 0.015
-0.005127919911 -0.003688060843 0.014
-0.005100211417 -0.003688060843 0.014
-0.005072502923 -0.003688060843 0.014
-0.005044794429 -0.003688060843 0.014
-0.004658722653 -0.003424627925 0.013
-0.004632993337 -0.003424627925 0.013
-0.004607264021 -0.003424627925 0.013
-0.004581534705 -0.003424627925 0.013
-0.004555805389 -0.003424627925 0.013
-0.004530076073 -0.003424627925 0.013
-0.004504346757 -0.003424627925 0.013
-0.004478617441 -0.003424627925 0.013
-0.004452888125 -0.003424627925 0.013
-0.004427158808 -0.003424627925 0.013
-0.004401429492 -0.003424627925 0.013
-0.004375700176 -0.003424627925 0.013
-0.00434997086 -0.003424627925 0.013
-0.004324241544 -0.003424627925 0.013
-0.004298512228 -0.003424627925 0.013
-0.004272782912 -0.003424627925 0.013
-0.004247053596 -0.003424627925 0.013
-0.00422132428 -0.003424627925 0.013
-0.004195594964 -0.003424627925 0.013
-0.004169865647 -0.003424627925 0.013
-0.004144136331 -0.003424627925 0.013
-0.004118407015 -0.003424627925 0.013
-0.004092677699 -0.003424627925 0.013
-0.0037541062 -0.003161195008 0.012
-0.003730356062 -0.003161195008 0.012
-0.003706605924 -0.003161195008 0.012
-0.003682855786 -0.003161195008 0.012
-0.003659105648 -0.003161195008 0.012
-0.00363535551 -0.003161195008 0.012
-0.003611605372 -0.003161195008 0.012
-0.003587855234 -0.003161195008 0.012
-0.003564105096 -0.003161195008 0.012
-0.003540354958 -0.003161195008 0.012
-0.00351660482 -0.003161195008 0.012
-0.003492854682 -0.003161195008 0.012
-0.003469104544 -0.003161195008 0.012
-0.003445354407 -0.003161195008 0.012
-0.003421604269 -0.003161195008 0.012
-0.003397854131 -0.003161195008 0.012
-0.003374103993 -0.003161195008 0.012
-0.003350353855 -0.003161195008 0.012
-0.003326603717 -0.003161195008 0.012
-0.003302853579 -0.003161195008 0.012
-0.003279103441 -0.003161195008 0.012
-0.003255353303 -0.003161195008 0.012
-0.003231603165 -0.003161195008 0.012
-0.003207853027 -0.003161195008 0.012
-0.003184102889 -0.003161195008 0.012
-0.003160352751 -0.003161195008 0.012
-0.003136602613 -0.003161195008 0.012
-0.003112852475 -0.003161195008 0.012
-0.003089102337 -0.003161195008 0.012
-0.0030653522 -0.003161195008 0.012
-0.003041602062 -0.003161195008 0.012
-0.003017851924 -0.003161195008 0.012
-0.002994101786 -0.003161195008 0.012
-0.002970351648 -0.003161195008 0.012
-0.003192151636 -0.003424627925 0.013
-0.00316642232 -0.003424627925 0.013
-0.003140693003 -0.003424627925 0.013
-0.003114963687 -0.003424627925 0.013
-0.003089234371 -0.003424627925 0.013
-0.003063505055 -0.003424627925 0.013
-0.003037775739 -0.003424627925 0.013
-0.003012046423 -0.003424627925 0.013
-0.002986317107 -0.003424627925 0.013
-0.002960587791 -0.003424627925 0.013
-0.002934858475 -0.003424627925 0.013
-0.002909129159 -0.003424627925 0.013
-0.002883399842 -0.003424627925 0.013
-0.002857670526 -0.003424627925 0.013
-0.00283194121 -0.003424627925 0.013
-0.002806211894 -0.003424627925 0.013
-0.002780482578 -0.003424627925 0.013
-0.002754753262 -0.003424627925 0.013
-0.002729023946 -0.003424627925 0.013
-0.00270329463 -0.003424627925 0.013
-0.002677565314 -0.003424627925 0.013
-0.002651835998 -0.003424627925 0.013
-0.002626106681 -0.003424627925 0.013
-0.002600377365 -0.003424627925 0.013
-0.002574648049 -0.003424627925 0.013
-0.002548918733 -0.003424627925 0.013
-0.002523189417 -0.003424627925 0.013
-0.002881684732 -0.00395149376 0.015
-0.001901331373 -0.002634329173 0.01
-0.002069693551 -0.002897762091 0.011
-0.002047922591 -0.002897762091 0.011
-0.0005407117395 -0.000790298752 0.003
-0.0003525577803 -0.0005268658347 0.002
-0.00348599424 -0.005268658347 0.02
-0.004308013346 -0.006585822934 0.025
-0.004599216603 -0.007112688768 0.027
-0.003872330083 -0.006058957099 0.023
-0.0004991489981 -0.000790298752 0.003
-6.940326945e-05 -0.0002634329173 0.001
-0.01091610641 -0.04531046178 0.172
-0.0001725846014 -0.000790298752 0.003
-0.009106873507 -0.04478359595 0.17
-0.008873594551 -0.04531046178 0.172
-4.763230967e-05 -0.0002634329173 0.001
-9.130626302e-05 -0.0005268658347 0.002
-4.169477519e-05 -0.0002634329173 0.001
-3.773641887e-05 -0.0002634329173 0.001
-7.151448141e-05 -0.0005268658347 0.002
0.001127339349 -0.001580597504 0.006
0.001139214418 -0.001580597504 0.006
0.001151089487 -0.001580597504 0.006
0.001162964556 -0.001580597504 0.006
0.000979033021 -0.001317164587 0.005
0.0009889289118 -0.001317164587 0.005
0.0009988248026 -0.001317164587 0.005
0.001008720693 -0.001317164587 0.005
0.001018616584 -0.001317164587 0.005
0.001028512475 -0.001317164587 0.005
0.001038408366 -0.001317164587 0.005
0.001048304257 -0.001317164587 0.005
0.001058200147 -0.001317164587 0.005
0.001068096038 -0.001317164587 0.005
0.001077991929 -0.001317164587 0.005
0.00108788782 -0.001317164587 0.005
0.001097783711 -0.001317164587 0.005
0.001107679601 -0.001317164587 0.005
0.001117575492 -0.001317164587 0.005
0.001127471383 -0.001317164587 0.005
0.001137367274 -0.001317164587 0.005
0.001147263165 -0.001317164587 0.005
0.001157159055 -0.001317164587 0.005
0.001167054946 -0.001317164587 0.005
0.001176950837 -0.001317164587 0.005
0.0009494773823 -0.001053731669 0.004
0.000957394095 -0.001053731669 0.004
0.0009653108076 -0.001053731669 0.004
0.0009732275203 -0.001053731669 0.004
0.0009811442329 -0.001053731669 0.004
0.0009890609456 -0.001053731669 0.004
0.0007477332437 -0.000790298752 0.003
0.001004894371 -0.001053731669 0.004
0.001012811083 -0.001053731669 0.004
0.001020727796 -0.001053731669 0.004
0.001028644509 -0.001053731669 0.004
0.001036561221 -0.001053731669 0.004
0.001044477934 -0.001053731669 0.004
0.001052394647 -0.001053731669 0.004
0.001060311359 -0.001053731669 0.004
0.001068228072 -0.001053731669 0.004
0.001076144785 -0.001053731669 0.004
0.001084061497 -0.001053731669 0.004
0.00109197821 -0.001053731669 0.004
0.001099894923 -0.001053731669 0.004
0.001107811635 -0.001053731669 0.004
0.001115728348 -0.001053731669 0.004
0.001123645061 -0.001053731669 0.004
0.001414452216 -0.001317164587 0.005
0.001139478486 -0.001053731669 0.004
0.0008605463989 -0.000790298752 0.003
0.001444139889 -0.001317164587 0.005
0.00145403578 -0.001317164587 0.005
0.001463931671 -0.001317164587 0.005
0.001179062049 -0.001053731669 0.004
0.001483723452 -0.001317164587 0.005
0.001493619343 -0.001317164587 0.005
0.001503515234 -0.001317164587 0.005
0.001513411125 -0.001317164587 0.005
0.001523307015 -0.001317164587 0.005
0.001533202906 -0.001317164587 0.005
0.001543098797 -0.001317164587 0.005
0.001552994688 -0.001317164587 0.005
0.001562890579 -0.001317164587 0.005
0.001572786469 -0.001317164587 0.005
0.00158268236 -0.001317164587 0.005
0.001592578251 -0.001317164587 0.005
0.001602474142 -0.001317164587 0.005
0.001612370033 -0.001317164587 0.005
0.001622265923 -0.001317164587 0.005
0.001632161814 -0.001317164587 0.005
0.001642057705 -0.001317164587 0.005
0.001651953596 -0.001317164587 0.005
0.001661849487 -0.001317164587 0.005
0.001671745377 -0.001317164587 0.005
0.001681641268 -0.001317164587 0.005
0.001691537159 -0.001317164587 0.005
0.00170143305 -0.001317164587 0.005
0.001369063153 -0.001053731669 0.004
0.001376979865 -0.001053731669 0.004
0.001038672433 -0.000790298752 0.003
0.0003521616789 -0.0002634329173 0.001
0.001448230279 -0.001053731669 0.004
0.0007280734958 -0.0005268658347 0.002
0.0003660159261 -0.0002634329173 0.001
-0.0008236021828 -0.0005229082959 0.002
-0.0004058635569 -0.0002614541479 0.001
-0.0008038104012 -0.0005229082959 0.002
-0.007998520448 -0.005229082959 0.02
-0.008356883729 -0.005490537107 0.021
-0.01029515932 -0.006797807846 0.026
-0.008667746735 -0.005751991254 0.022
-0.008232195505 -0.005490537107 0.021
-0.009360723159 -0.00627489955 0.024
-0.008537120976 -0.005751991254 0.022
-0.007721435506 -0.005229082959 0.02
-0.00806594454 -0.005490537107 0.021
-0.008024381798 -0.005490537107 0.021
-0.007982819057 -0.005490537107 0.021
-0.007941256315 -0.005490537107 0.021
-0.00752351769 -0.005229082959 0.02
-0.007483934126 -0.005229082959 0.02
-0.007072133035 -0.004967628811 0.019
-0.00629405195 -0.004444720515 0.017
-0.005523887578 -0.003921812219 0.015
-0.005127919911 -0.003660358071 0.014
-0.005100211417 -0.003660358071 0.014
-0.005072502923 -0.003660358071 0.014
-0.005044794429 -0.003660358071 0.014
-0.004658722653 -0.003398903923 0.013
-0.004632993337 -0.003398903923 0.013
-0.004607264021 -0.003398903923 0.013
-0.004581534705 -0.003398903923 0.013
-0.004555805389 -0.003398903923 0.013
-0.004530076073 -0.003398903923 0.013
-0.004504346757 -0.003398903923 0.013
-0.004478617441 -0.003398903923 0.013
-0.004452888125 -0.003398903923 0.013
-0.004427158808 -0.003398903923 0.013
-0.004401429492 -0.003398903923 0.013
-0.004375700176 -0.003398903923 0.013
-0.00434997086 -0.003398903923 0.013
-0.004324241544 -0.003398903923 0.013
-0.004298512228 -0.003398903923 0.013
-0.004272782912 -0.003398903923 0.013
