# .PCD v0.7 - Point Cloud Data file format
VERSION 0.7
FIELDS x y z
SIZE 4 4 4
TYPE F F F
COUNT 1 1 1
WIDTH 1279
HEIGHT 1
VIEWPOINT 0 0 0 1 0 0 0
POINTS 1279
DATA ascii
0.0009811442329 -0.0009429205823 0.004
0.0009890609456 -0.0009429205823 0.004
0.0009969776582 -0.0009429205823 0.004
0.001004894371 -0.0009429205823 0.004
0.001012811083 -0.0009429205823 0.004
0.001020727796 -0.0009429205823 0.004
0.001028644509 -0.0009429205823 0.004
0.001036561221 -0.0009429205823 0.004
0.001044477934 -0.0009429205823 0.004
0.001315493308 -0.001178650728 0.005
0.001325389199 -0.001178650728 0.005
0.00133528509 -0.001178650728 0.005
0.001345180981 -0.001178650728 0.005
0.001355076872 -0.001178650728 0.005
0.001364972762 -0.001178650728 0.005
0.001374868653 -0.001178650728 0.005
0.001384764544 -0.001178650728 0.005
0.001394660435 -0.001178650728 0.005
0.001404556326 -0.001178650728 0.005
0.001414452216 -0.001178650728 0.005
0.001139478486 -0.0009429205823 0.004
0.001434243998 -0.001178650728 0.005
0.001732967867 -0.001414380873 0.006
0.001163228624 -0.0009429205823 0.004
0.0005895310245 -0.0004714602911 0.002
0.002373957523 -0.001885841165 0.008
0.001792343212 -0.001414380873 0.006
0.00180421828 -0.001414380873 0.006
0.001816093349 -0.001414380873 0.006
0.001827968418 -0.001414380873 0.006
0.001839843487 -0.001414380873 0.006
0.001851718556 -0.001414380873 0.006
0.001863593625 -0.001414380873 0.006
0.001875468694 -0.001414380873 0.006
0.001887343763 -0.001414380873 0.006
0.001899218832 -0.001414380873 0.006
0.001911093901 -0.001414380873 0.006
0.00192296897 -0.001414380873 0.006
0.001612370033 -0.001178650728 0.005
0.001622265923 -0.001178650728 0.005
0.001632161814 -0.001178650728 0.005
0.001642057705 -0.001178650728 0.005
0.001651953596 -0.001178650728 0.005
0.001661849487 -0.001178650728 0.005
0.001671745377 -0.001178650728 0.005
0.001681641268 -0.001178650728 0.005
0.001691537159 -0.001178650728 0.005
0.00170143305 -0.001178650728 0.005
0.001711328941 -0.001178650728 0.005
0.001721224832 -0.001178650728 0.005
0.001384896578 -0.0009429205823 0.004
0.001392813291 -0.0009429205823 0.004
0.001400730003 -0.0009429205823 0.004
0.001408646716 -0.0009429205823 0.004
0.001416563428 -0.0009429205823 0.004
0.001780600176 -0.001178650728 0.005
0.001790496067 -0.001178650728 0.005
0.001800391958 -0.001178650728 0.005
0.002172345419 -0.001414380873 0.006
0.001456146992 -0.0009429205823 0.004
0.00183007963 -0.001178650728 0.005
0.002207970625 -0.001414380873 0.006
0.00147989713 -0.0009429205823 0.004
0.0003759118169 -0.0002357301456 0.001
-0.01153043056 -0.006545038532 0.028
-0.009425904004 -0.005376281651 0.023
-0.01305096752 -0.007480044037 0.032
-0.01014658892 -0.005843784404 0.025
-0.01050099385 -0.00607753578 0.026
-0.01326287162 -0.007713795413 0.033
-0.01039807658 -0.00607753578 0.026
-0.01114251164 -0.006545038532 0.028
-0.01108709465 -0.006545038532 0.028
-0.01103167766 -0.006545038532 0.028
-0.01097626067 -0.006545038532 0.028
-0.01092084369 -0.006545038532 0.028
-0.0108654267 -0.006545038532 0.028
-0.01081000971 -0.006545038532 0.028
-0.01075459272 -0.006545038532 0.028
-0.01069917573 -0.006545038532 0.028
-0.01064375874 -0.006545038532 0.028
-0.01058834175 -0.006545038532 0.028
-0.01053292477 -0.006545038532 0.028
-0.01047750778 -0.006545038532 0.028
-0.01042209079 -0.006545038532 0.028
-0.01073691215 -0.006778789908 0.029
-0.01067951598 -0.006778789908 0.029
-0.01062211982 -0.006778789908 0.029
-0.01056472365 -0.006778789908 0.029
-0.01050732748 -0.006778789908 0.029
-0.01044993132 -0.006778789908 0.029
-0.01039253515 -0.006778789908 0.029
-0.01033513898 -0.006778789908 0.029
-0.01027774282 -0.006778789908 0.029
-0.01022034665 -0.006778789908 0.029
-0.01051339705 -0.007012541284 0.03
-0.01045402171 -0.007012541284 0.03
-0.01039464636 -0.007012541284 0.03
-0.01033527102 -0.007012541284 0.03
-0.01027589567 -0.007012541284 0.03
-0.01021652033 -0.007012541284 0.03
-0.01015714498 -0.007012541284 0.03
-0.01009776964 -0.007012541284 0.03
-0.01037300744 -0.007246292661 0.031
-0.01031165291 -0.007246292661 0.031
-0.01025029839 -0.007246292661 0.031
-0.01018894387 -0.007246292661 0.031
-0.01012758934 -0.007246292661 0.031
-0.01039095207 -0.007480044037 0.032
-0.0100048803 -0.007246292661 0.031
-0.009943525775 -0.007246292661 0.031
-0.009882171252 -0.007246292661 0.031
-0.009820816729 -0.007246292661 0.031
-0.009759462206 -0.007246292661 0.031
-0.009698107683 -0.007246292661 0.031
-0.00963675316 -0.007246292661 0.031
-0.009575398637 -0.007246292661 0.031
-0.009514044114 -0.007246292661 0.031
-0.009452689591 -0.007246292661 0.031
-0.009391335068 -0.007246292661 0.031
-0.009329980545 -0.007246292661 0.031
-0.009268626022 -0.007246292661 0.031
-0.009207271499 -0.007246292661 0.031
-0.009145916976 -0.007246292661 0.031
-0.009084562453 -0.007246292661 0.031
-0.00902320793 -0.007246292661 0.031
-0.008961853407 -0.007246292661 0.031
-0.008900498884 -0.007246292661 0.031
-0.00912427805 -0.007480044037 0.032
-0.009060944348 -0.007480044037 0.032
-0.008997610647 -0.007480044037 0.032
-0.008934276946 -0.007480044037 0.032
-0.008870943245 -0.007480044037 0.032
-0.008807609544 -0.007480044037 0.032
-0.008744275843 -0.007480044037 0.032
-0.008680942141 -0.007480044037 0.032
-0.00861760844 -0.007480044037 0.032
-0.008554274739 -0.007480044037 0.032
-0.008490941038 -0.007480044037 0.032
-0.008427607337 -0.007480044037 0.032
-0.008364273636 -0.007480044037 0.032
-0.008300939934 -0.007480044037 0.032
-0.008237606233 -0.007480044037 0.032
-0.008429718549 -0.007713795413 0.033
-0.008364405669 -0.007713795413 0.033
-0.00829909279 -0.007713795413 0.033
-0.008233779911 -0.007713795413 0.033
-0.008168467031 -0.007713795413 0.033
-0.008103154152 -0.007713795413 0.033
-0.008037841273 -0.007713795413 0.033
-0.007972528393 -0.007713795413 0.033
-0.007667602923 -0.007480044037 0.032
-0.008317169461 -0.008181298165 0.035
-0.008719206696 -0.008648800918 0.037
-0.007477601819 -0.007480044037 0.032
-0.006950876361 -0.007012541284 0.03
-0.00872923462 -0.008882552294 0.038
-0.007743075761 -0.007947546789 0.034
-0.007450025359 -0.007713795413 0.033
-0.007608491646 -0.007947546789 0.034
-0.009093799503 -0.009583806422 0.041
-0.0002158624534 -0.0002337513761 0.001
-0.0002119040971 -0.0002337513761 0.001
-0.0002079457408 -0.0002337513761 0.001
-0.0004079747689 -0.0004675027523 0.002
-0.0007921993998 -0.0009350055046 0.004
-0.0003881829872 -0.0004675027523 0.002
-0.006723931041 -0.008181298165 0.035
-0.006654659805 -0.008181298165 0.035
-0.006209080652 -0.007713795413 0.033
-0.006329942553 -0.007947546789 0.034
-0.006446846099 -0.008181298165 0.035
-0.006377574863 -0.008181298165 0.035
-0.005947829134 -0.007713795413 0.033
-0.00641729046 -0.008415049541 0.036
-0.005817203376 -0.007713795413 0.033
-0.00610048992 -0.008181298165 0.035
-0.0003446410677 -0.0004675027523 0.002
-0.000162424643 -0.0002337513761 0.001
-0.004937130592 -0.01238882294 0.053
-0.004649885691 -0.01192132018 0.051
-0.004370557502 -0.01145381743 0.049
-0.004186361899 -0.01122006606 0.048
-0.0001704733895 -0.0004675027523 0.002
-8.127833842e-05 -0.0002337513761 0.001
-0.0001546399642 -0.0004675027523 0.002
-7.534080393e-05 -0.0002337513761 0.001
-0.0002200848773 -0.0007012541284 0.003
-6.742409129e-05 -0.0002337513761 0.001
-6.346573496e-05 -0.0002337513761 0.001
-6.14865568e-05 -0.0002337513761 0.001
-5.752820048e-05 -0.0002337513761 0.001
-0.0002221960893 -0.0009350055046 0.004
0.001329083488 -0.001636259633 0.007
0.001534785983 -0.001870011009 0.008
0.001356791982 -0.001636259633 0.007
0.001370646229 -0.001636259633 0.007
0.001384500476 -0.001636259633 0.007
0.001598119684 -0.001870011009 0.008
0.001210464832 -0.001402508257 0.006
0.001222339901 -0.001402508257 0.006
0.00123421497 -0.001402508257 0.006
0.001246090039 -0.001402508257 0.006
0.001257965108 -0.001402508257 0.006
0.001058200147 -0.001168756881 0.005
0.001068096038 -0.001168756881 0.005
0.001077991929 -0.001168756881 0.005
0.00108788782 -0.001168756881 0.005
0.001097783711 -0.001168756881 0.005
0.001107679601 -0.001168756881 0.005
0.001117575492 -0.001168756881 0.005
0.001127471383 -0.001168756881 0.005
0.001137367274 -0.001168756881 0.005
0.001147263165 -0.001168756881 0.005
0.001157159055 -0.001168756881 0.005
0.001167054946 -0.001168756881 0.005
0.001176950837 -0.001168756881 0.005
0.001186846728 -0.001168756881 0.005
0.001196742619 -0.001168756881 0.005
0.00120663851 -0.001168756881 0.005
0.0012165344 -0.001168756881 0.005
0.0009811442329 -0.0009350055046 0.004
0.0009890609456 -0.0009350055046 0.004
0.0009969776582 -0.0009350055046 0.004
0.001004894371 -0.0009350055046 0.004
0.001012811083 -0.0009350055046 0.004
0.001020727796 -0.0009350055046 0.004
0.001028644509 -0.0009350055046 0.004
0.001036561221 -0.0009350055046 0.004
0.001044477934 -0.0009350055046 0.004
0.001315493308 -0.001168756881 0.005
0.001325389199 -0.001168756881 0.005
0.00133528509 -0.001168756881 0.005
0.001345180981 -0.001168756881 0.005
0.001355076872 -0.001168756881 0.005
0.001364972762 -0.001168756881 0.005
0.001374868653 -0.001168756881 0.005
0.001384764544 -0.001168756881 0.005
0.001394660435 -0.001168756881 0.005
0.001404556326 -0.001168756881 0.005
0.00169734266 -0.001402508257 0.006
0.001139478486 -0.0009350055046 0.004
0.001434243998 -0.001168756881 0.005
0.001444139889 -0.001168756881 0.005
0.0008724214678 -0.0007012541284 0.003
0.0002947655123 -0.0002337513761 0.001
0.001780468143 -0.001402508257 0.006
0.001792343212 -0.001402508257 0.006
0.00180421828 -0.001402508257 0.006
0.001816093349 -0.001402508257 0.006
0.001827968418 -0.001402508257 0.006
0.001839843487 -0.001402508257 0.006
0.001851718556 -0.001402508257 0.006
0.001863593625 -0.001402508257 0.006
0.001875468694 -0.001402508257 0.006
0.001887343763 -0.001402508257 0.006
0.001899218832 -0.001402508257 0.006
0.001911093901 -0.001402508257 0.006
0.00192296897 -0.001402508257 0.006
0.001612370033 -0.001168756881 0.005
0.001622265923 -0.001168756881 0.005
0.001632161814 -0.001168756881 0.005
0.001642057705 -0.001168756881 0.005
0.001651953596 -0.001168756881 0.005
0.001661849487 -0.001168756881 0.005
0.001671745377 -0.001168756881 0.005
0.001681641268 -0.001168756881 0.005
0.001691537159 -0.001168756881 0.005
0.00170143305 -0.001168756881 0.005
0.001711328941 -0.001168756881 0.005
0.001721224832 -0.001168756881 0.005
0.001384896578 -0.0009350055046 0.004
0.001392813291 -0.0009350055046 0.004
0.001400730003 -0.0009350055046 0.004
0.001408646716 -0.0009350055046 0.004
0.001416563428 -0.0009350055046 0.004
0.001424480141 -0.0009350055046 0.004
0.001790496067 -0.001168756881 0.005
0.001800391958 -0.001168756881 0.005
0.002172345419 -0.001402508257 0.006
0.00182018374 -0.001168756881 0.005
0.00183007963 -0.001168756881 0.005
0.002207970625 -0.001402508257 0.006
0.00147989713 -0.0009350055046 0.004
0.0003719534606 -0.0002337513761 0.001
0.0003759118169 -0.0002337513761 0.001
-0.01194223165 -0.006721405595 0.029
-0.01311430122 -0.007416723416 0.032
-0.009788225642 -0.005562542562 0.024
-0.01258177026 -0.007184950809 0.031
-0.01050099385 -0.006026087775 0.026
-0.01125334562 -0.006489632989 0.028
-0.01039807658 -0.006026087775 0.026
-0.01114251164 -0.006489632989 0.028
-0.01108709465 -0.006489632989 0.028
-0.01103167766 -0.006489632989 0.028
-0.01097626067 -0.006489632989 0.028
-0.01092084369 -0.006489632989 0.028
-0.0108654267 -0.006489632989 0.028
-0.01081000971 -0.006489632989 0.028
-0.01075459272 -0.006489632989 0.028
-0.01069917573 -0.006489632989 0.028
-0.01064375874 -0.006489632989 0.028
-0.01058834175 -0.006489632989 0.028
-0.01053292477 -0.006489632989 0.028
-0.01047750778 -0.006489632989 0.028
-0.01042209079 -0.006489632989 0.028
-0.01073691215 -0.006721405595 0.029
-0.01067951598 -0.006721405595 0.029
-0.01062211982 -0.006721405595 0.029
-0.01056472365 -0.006721405595 0.029
-0.01050732748 -0.006721405595 0.029
-0.01044993132 -0.006721405595 0.029
-0.01039253515 -0.006721405595 0.029
-0.01033513898 -0.006721405595 0.029
-0.01027774282 -0.006721405595 0.029
-0.01022034665 -0.006721405595 0.029
-0.01051339705 -0.006953178202 0.03
-0.01045402171 -0.006953178202 0.03
-0.01039464636 -0.006953178202 0.03
-0.01033527102 -0.006953178202 0.03
-0.01027589567 -0.006953178202 0.03
-0.01021652033 -0.006953178202 0.03
-0.01015714498 -0.006953178202 0.03
-0.01009776964 -0.006953178202 0.03
-0.01037300744 -0.007184950809 0.031
-0.01031165291 -0.007184950809 0.031
-0.01025029839 -0.007184950809 0.031
-0.01018894387 -0.007184950809 0.031
-0.01012758934 -0.007184950809 0.031
-0.01006623482 -0.007184950809 0.031
-0.0100048803 -0.007184950809 0.031
-0.009943525775 -0.007184950809 0.031
-0.009882171252 -0.007184950809 0.031
-0.009820816729 -0.007184950809 0.031
-0.009759462206 -0.007184950809 0.031
-0.009698107683 -0.007184950809 0.031
-0.00963675316 -0.007184950809 0.031
-0.009575398637 -0.007184950809 0.031
-0.009514044114 -0.007184950809 0.031
-0.009452689591 -0.007184950809 0.031
-0.009391335068 -0.007184950809 0.031
-0.009329980545 -0.007184950809 0.031
-0.009268626022 -0.007184950809 0.031
-0.009207271499 -0.007184950809 0.031
-0.009145916976 -0.007184950809 0.031
-0.009084562453 -0.007184950809 0.031
-0.00902320793 -0.007184950809 0.031
-0.008961853407 -0.007184950809 0.031
-0.008900498884 -0.007184950809 0.031
-0.008839144361 -0.007184950809 0.031
-0.009060944348 -0.007416723416 0.032
-0.008997610647 -0.007416723416 0.032
-0.008934276946 -0.007416723416 0.032
-0.008870943245 -0.007416723416 0.032
-0.008807609544 -0.007416723416 0.032
-0.008744275843 -0.007416723416 0.032
-0.008680942141 -0.007416723416 0.032
-0.00861760844 -0.007416723416 0.032
-0.008554274739 -0.007416723416 0.032
-0.008490941038 -0.007416723416 0.032
-0.008427607337 -0.007416723416 0.032
-0.008364273636 -0.007416723416 0.032
-0.008300939934 -0.007416723416 0.032
-0.008237606233 -0.007416723416 0.032
-0.008429718549 -0.007648496022 0.033
-0.008364405669 -0.007648496022 0.033
-0.00829909279 -0.007648496022 0.033
-0.008233779911 -0.007648496022 0.033
-0.008168467031 -0.007648496022 0.033
-0.008103154152 -0.007648496022 0.033
-0.008037841273 -0.007648496022 0.033
-0.007972528393 -0.007648496022 0.033
-0.008386440697 -0.008112041236 0.035
-0.008079536048 -0.007880268629 0.034
-0.00754093552 -0.007416723416 0.032
-0.007944951933 -0.007880268629 0.034
-0.008109355754 -0.008112041236 0.035
-0.008040084519 -0.008112041236 0.035
-0.007287600716 -0.007416723416 0.032
-0.00857881708 -0.008807359056 0.038
-0.008056049978 -0.008343813843 0.036
-0.007097599612 -0.007416723416 0.032
-0.0002119040971 -0.0002317726067 0.001
-0.0008159495377 -0.0009270904269 0.004
-0.0004040164125 -0.0004635452135 0.002
-0.0006000870843 -0.0006953178202 0.003
-0.006599110783 -0.007880268629 0.034
-0.005763369464 -0.006953178202 0.03
-0.006844792943 -0.008343813843 0.036
-0.006397234611 -0.007880268629 0.034
-0.006143767772 -0.007648496022 0.033
-0.006262650496 -0.007880268629 0.034
-0.006013142014 -0.007648496022 0.033
-0.005587354641 -0.007184950809 0.031
-0.006239032392 -0.008112041236 0.035
-0.006346040046 -0.008343813843 0.036
-0.000336724355 -0.0004635452135 0.002
-0.0003288076424 -0.0004635452135 0.002
-9.711176371e-05 -0.0002317726067 0.001
-0.0002853977566 -0.0006953178202 0.003
-0.004378210147 -0.01089331252 0.047
-0.004558711461 -0.01158863034 0.05
-0.004459752553 -0.01158863034 0.05
-0.004535225391 -0.01205217555 0.052
-0.004261834737 -0.01158863034 0.05
-0.004162875829 -0.01158863034 0.05
-0.0001625566768 -0.0004635452135 0.002
-0.0001585983205 -0.0004635452135 0.002
-7.138244761e-05 -0.0002317726067 0.001
-6.940326945e-05 -0.0002317726067 0.001
-6.346573496e-05 -0.0002317726067 0.001
-0.0103912281 -0.03916957054 0.169
-0.01029477651 -0.04009666097 0.173
-5.356984416e-05 -0.0002317726067 0.001
0.001329083488 -0.001622408247 0.007
0.001342937735 -0.001622408247 0.007
0.001356791982 -0.001622408247 0.007
0.001370646229 -0.001622408247 0.007
0.001384500476 -0.001622408247 0.007
0.001398354724 -0.001622408247 0.007
0.001210464832 -0.00139063564 0.006
0.001222339901 -0.00139063564 0.006
0.00123421497 -0.00139063564 0.006
0.001246090039 -0.00139063564 0.006
0.001048304257 -0.001158863034 0.005
0.001058200147 -0.001158863034 0.005
0.001068096038 -0.001158863034 0.005
0.001077991929 -0.001158863034 0.005
0.00108788782 -0.001158863034 0.005
0.001097783711 -0.001158863034 0.005
0.001107679601 -0.001158863034 0.005
0.001117575492 -0.001158863034 0.005
0.001127471383 -0.001158863034 0.005
0.001137367274 -0.001158863034 0.005
0.001147263165 -0.001158863034 0.005
0.001157159055 -0.001158863034 0.005
0.001167054946 -0.001158863034 0.005
0.001176950837 -0.001158863034 0.005
0.001186846728 -0.001158863034 0.005
0.001196742619 -0.001158863034 0.005
0.00120663851 -0.001158863034 0.005
0.0012165344 -0.001158863034 0.005
0.0009811442329 -0.0009270904269 0.004
0.0009890609456 -0.0009270904269 0.004
0.0009969776582 -0.0009270904269 0.004
0.001004894371 -0.0009270904269 0.004
0.001012811083 -0.0009270904269 0.004
0.001020727796 -0.0009270904269 0.004
0.001028644509 -0.0009270904269 0.004
0.001036561221 -0.0009270904269 0.004
0.001044477934 -0.0009270904269 0.004
0.001315493308 -0.001158863034 0.005
0.001325389199 -0.001158863034 0.005
0.00133528509 -0.001158863034 0.005
0.001345180981 -0.001158863034 0.005
0.001355076872 -0.001158863034 0.005
0.001364972762 -0.001158863034 0.005
0.001374868653 -0.001158863034 0.005
0.001384764544 -0.001158863034 0.005
0.001394660435 -0.001158863034 0.005
0.001404556326 -0.001158863034 0.005
0.00169734266 -0.00139063564 0.006
0.001424348107 -0.001158863034 0.005
0.001434243998 -0.001158863034 0.005
0.001444139889 -0.001158863034 0.005
0.0008724214678 -0.0006953178202 0.003
0.0002927863341 -0.0002317726067 0.001
0.0002947655123 -0.0002317726067 0.001
0.001186978762 -0.0009270904269 0.004
0.001792343212 -0.00139063564 0.006
0.00180421828 -0.00139063564 0.006
0.001816093349 -0.00139063564 0.006
0.001827968418 -0.00139063564 0.006
0.001839843487 -0.00139063564 0.006
0.001851718556 -0.00139063564 0.006
0.001863593625 -0.00139063564 0.006
0.001875468694 -0.00139063564 0.006
0.001887343763 -0.00139063564 0.006
0.001899218832 -0.00139063564 0.006
0.001911093901 -0.00139063564 0.006
0.00192296897 -0.00139063564 0.006
0.001934844039 -0.00139063564 0.006
0.001622265923 -0.001158863034 0.005
0.001632161814 -0.001158863034 0.005
0.001642057705 -0.001158863034 0.005
0.001651953596 -0.001158863034 0.005
0.001661849487 -0.001158863034 0.005
0.001671745377 -0.001158863034 0.005
0.001681641268 -0.001158863034 0.005
0.001691537159 -0.001158863034 0.005
0.00170143305 -0.001158863034 0.005
0.001711328941 -0.001158863034 0.005
0.001721224832 -0.001158863034 0.005
0.001384896578 -0.0009270904269 0.004
0.001392813291 -0.0009270904269 0.004
0.001400730003 -0.0009270904269 0.004
0.001408646716 -0.0009270904269 0.004
0.001416563428 -0.0009270904269 0.004
0.001424480141 -0.0009270904269 0.004
0.001790496067 -0.001158863034 0.005
0.001800391958 -0.001158863034 0.005
0.001810287849 -0.001158863034 0.005
0.00182018374 -0.001158863034 0.005
0.00183007963 -0.001158863034 0.005
0.001839975521 -0.001158863034 0.005
0.001849871412 -0.001158863034 0.005
0.001115860382 -0.0006953178202 0.003
0.0003739326387 -0.0002317726067 0.001
-0.01117206728 -0.006204433608 0.027
-0.01194223165 -0.006664021282 0.029
-0.01024554783 -0.005744845933 0.025
-0.01182743932 -0.006664021282 0.029
-0.01055245248 -0.00597463977 0.026
-0.0113087626 -0.006434227445 0.028
-0.01004763001 -0.005744845933 0.025
-0.01199778067 -0.00689381512 0.03
-0.01114251164 -0.006434227445 0.028
-0.01108709465 -0.006434227445 0.028
-0.01103167766 -0.006434227445 0.028
-0.01097626067 -0.006434227445 0.028
-0.01092084369 -0.006434227445 0.028
-0.0108654267 -0.006434227445 0.028
-0.01081000971 -0.006434227445 0.028
-0.01075459272 -0.006434227445 0.028
-0.01108128915 -0.006664021282 0.029
-0.01064375874 -0.006434227445 0.028
-0.01058834175 -0.006434227445 0.028
-0.01053292477 -0.006434227445 0.028
-0.01047750778 -0.006434227445 0.028
-0.01042209079 -0.006434227445 0.028
-0.01073691215 -0.006664021282 0.029
-0.01067951598 -0.006664021282 0.029
-0.01062211982 -0.006664021282 0.029
-0.01056472365 -0.006664021282 0.029
-0.01050732748 -0.006664021282 0.029
-0.01044993132 -0.006664021282 0.029
-0.01039253515 -0.006664021282 0.029
-0.01033513898 -0.006664021282 0.029
-0.01027774282 -0.006664021282 0.029
-0.01022034665 -0.006664021282 0.029
-0.01051339705 -0.00689381512 0.03
-0.01045402171 -0.00689381512 0.03
-0.01039464636 -0.00689381512 0.03
-0.01033527102 -0.00689381512 0.03
-0.01027589567 -0.00689381512 0.03
-0.01021652033 -0.00689381512 0.03
-0.01015714498 -0.00689381512 0.03
-0.01009776964 -0.00689381512 0.03
-0.01037300744 -0.007123608957 0.031
-0.01031165291 -0.007123608957 0.031
-0.01025029839 -0.007123608957 0.031
-0.01018894387 -0.007123608957 0.031
-0.01012758934 -0.007123608957 0.031
-0.01006623482 -0.007123608957 0.031
-0.0100048803 -0.007123608957 0.031
-0.009943525775 -0.007123608957 0.031
-0.009882171252 -0.007123608957 0.031
-0.009820816729 -0.007123608957 0.031
-0.009759462206 -0.007123608957 0.031
-0.009698107683 -0.007123608957 0.031
-0.00963675316 -0.007123608957 0.031
-0.009575398637 -0.007123608957 0.031
-0.009514044114 -0.007123608957 0.031
-0.009452689591 -0.007123608957 0.031
-0.009391335068 -0.007123608957 0.031
-0.009329980545 -0.007123608957 0.031
-0.009268626022 -0.007123608957 0.031
-0.009207271499 -0.007123608957 0.031
-0.009145916976 -0.007123608957 0.031
-0.009084562453 -0.007123608957 0.031
-0.00902320793 -0.007123608957 0.031
-0.008961853407 -0.007123608957 0.031
-0.008900498884 -0.007123608957 0.031
-0.008839144361 -0.007123608957 0.031
-0.008777789838 -0.007123608957 0.031
-0.008997610647 -0.007353402794 0.032
-0.008934276946 -0.007353402794 0.032
-0.008870943245 -0.007353402794 0.032
-0.008807609544 -0.007353402794 0.032
-0.008744275843 -0.007353402794 0.032
-0.008680942141 -0.007353402794 0.032
-0.00861760844 -0.007353402794 0.032
-0.008554274739 -0.007353402794 0.032
-0.008490941038 -0.007353402794 0.032
-0.008427607337 -0.007353402794 0.032
-0.008364273636 -0.007353402794 0.032
-0.008300939934 -0.007353402794 0.032
-0.008237606233 -0.007353402794 0.032
-0.008429718549 -0.007583196632 0.033
-0.008364405669 -0.007583196632 0.033
-0.00829909279 -0.007583196632 0.033
-0.008233779911 -0.007583196632 0.033
-0.008168467031 -0.007583196632 0.033
-0.008103154152 -0.007583196632 0.033
-0.008037841273 -0.007583196632 0.033
-0.007972528393 -0.007583196632 0.033
-0.007907215514 -0.007583196632 0.033
-0.007366635808 -0.007123608957 0.031
-0.008247898225 -0.008042784306 0.035
-0.008645977104 -0.008502371981 0.037
-0.007414268118 -0.007353402794 0.032
-0.007350934417 -0.007353402794 0.032
-0.008426288328 -0.008502371981 0.037
-0.007675783703 -0.007812990469 0.034
-0.007384712479 -0.007583196632 0.033
-0.0006653999637 -0.000689381512 0.003
-0.0004356832631 -0.0004595876746 0.002
-0.0002138832752 -0.0002297938373 0.001
-0.0002119040971 -0.0002297938373 0.001
-0.0004119331252 -0.0004595876746 0.002
-0.0002020082063 -0.0002297938373 0.001
-0.0005941495498 -0.000689381512 0.003
-0.006470332169 -0.007583196632 0.033
-0.00698729377 -0.008272578144 0.036
-0.006723931041 -0.008042784306 0.035
-0.006274393531 -0.007583196632 0.033
-0.006020926692 -0.007353402794 0.032
-0.006329942553 -0.007812990469 0.034
-0.006446846099 -0.008042784306 0.035
-0.006195358438 -0.007812990469 0.034
-0.006308303627 -0.008042784306 0.035
-0.0001723205338 -0.0002297938373 0.001
-0.0001683621775 -0.0002297938373 0.001
-0.000162424643 -0.0002297938373 0.001
-0.004657670369 -0.01148969187 0.05
-0.004558711461 -0.01148969187 0.05
-0.004370557502 -0.01125989803 0.049
-0.004535225391 -0.01194927954 0.052
-0.004261834737 -0.01148969187 0.05
-0.004246133346 -0.0117194857 0.051
-0.004145195259 -0.0117194857 0.051
-0.0001546399642 -0.0004595876746 0.002
-7.336162577e-05 -0.0002297938373 0.001
-0.0001348481826 -0.0004595876746 0.002
-0.0001308898263 -0.0004595876746 0.002
-6.14865568e-05 -0.0002297938373 0.001
-0.01011625437 -0.03906495235 0.17
-0.0001071396883 -0.0004595876746 0.002
0.001329083488 -0.001608556861 0.007
0.001342937735 -0.001608556861 0.007
0.001356791982 -0.001608556861 0.007
0.001370646229 -0.001608556861 0.007
0.001384500476 -0.001608556861 0.007
0.001398354724 -0.001608556861 0.007
0.001008720693 -0.001148969187 0.005
0.001222339901 -0.001378763024 0.006
0.00123421497 -0.001378763024 0.006
0.001038408366 -0.001148969187 0.005
0.001048304257 -0.001148969187 0.005
0.001058200147 -0.001148969187 0.005
0.001068096038 -0.001148969187 0.005
0.001077991929 -0.001148969187 0.005
0.00108788782 -0.001148969187 0.005
0.001097783711 -0.001148969187 0.005
0.001107679601 -0.001148969187 0.005
0.001117575492 -0.001148969187 0.005
0.001127471383 -0.001148969187 0.005
0.001137367274 -0.001148969187 0.005
0.001147263165 -0.001148969187 0.005
0.001157159055 -0.001148969187 0.005
0.001167054946 -0.001148969187 0.005
0.001176950837 -0.001148969187 0.005
0.001186846728 -0.001148969187 0.005
0.001196742619 -0.001148969187 0.005
0.00120663851 -0.001148969187 0.005
0.0012165344 -0.001148969187 0.005
0.0009811442329 -0.0009191753493 0.004
0.0009890609456 -0.0009191753493 0.004
0.0009969776582 -0.0009191753493 0.004
0.001004894371 -0.0009191753493 0.004
0.001012811083 -0.0009191753493 0.004
0.001020727796 -0.0009191753493 0.004
0.001028644509 -0.0009191753493 0.004
0.001036561221 -0.0009191753493 0.004
0.001044477934 -0.0009191753493 0.004
0.001315493308 -0.001148969187 0.005
0.001325389199 -0.001148969187 0.005
0.00133528509 -0.001148969187 0.005
0.001345180981 -0.001148969187 0.005
0.001355076872 -0.001148969187 0.005
0.001364972762 -0.001148969187 0.005
0.001374868653 -0.001148969187 0.005
0.001384764544 -0.001148969187 0.005
0.001394660435 -0.001148969187 0.005
0.001404556326 -0.001148969187 0.005
0.001131561773 -0.0009191753493 0.004
0.001139478486 -0.0009191753493 0.004
0.001434243998 -0.001148969187 0.005
0.002021795844 -0.001608556861 0.007
0.001744842936 -0.001378763024 0.006
0.001463931671 -0.001148969187 0.005
0.001473827561 -0.001148969187 0.005
0.002077212833 -0.001608556861 0.007
0.001792343212 -0.001378763024 0.006
0.00180421828 -0.001378763024 0.006
0.001816093349 -0.001378763024 0.006
0.001827968418 -0.001378763024 0.006
0.001839843487 -0.001378763024 0.006
0.001851718556 -0.001378763024 0.006
0.001863593625 -0.001378763024 0.006
0.001875468694 -0.001378763024 0.006
0.001887343763 -0.001378763024 0.006
0.001899218832 -0.001378763024 0.006
0.001911093901 -0.001378763024 0.006
0.00192296897 -0.001378763024 0.006
0.001934844039 -0.001378763024 0.006
0.001622265923 -0.001148969187 0.005
0.001632161814 -0.001148969187 0.005
0.001642057705 -0.001148969187 0.005
0.001651953596 -0.001148969187 0.005
0.001661849487 -0.001148969187 0.005
0.001671745377 -0.001148969187 0.005
0.001681641268 -0.001148969187 0.005
0.001691537159 -0.001148969187 0.005
0.00170143305 -0.001148969187 0.005
0.001711328941 -0.001148969187 0.005
0.001721224832 -0.001148969187 0.005
0.001731120722 -0.001148969187 0.005
0.001741016613 -0.001148969187 0.005
0.001400730003 -0.0009191753493 0.004
0.001408646716 -0.0009191753493 0.004
0.001416563428 -0.0009191753493 0.004
0.001424480141 -0.0009191753493 0.004
0.001790496067 -0.001148969187 0.005
0.001800391958 -0.001148969187 0.005
0.001810287849 -0.001148969187 0.005
0.00182018374 -0.001148969187 0.005
0.00183007963 -0.001148969187 0.005
0.002207970625 -0.001378763024 0.006
0.002219845694 -0.001378763024 0.006
0.001487813842 -0.0009191753493 0.004
0.0007478652774 -0.0004595876746 0.002
-0.0005226350684 -0.0002278150679 0.001
-0.06299936272 -0.02756562322 0.121
-0.0005127391776 -0.0002278150679 0.001
-0.0005107599995 -0.0002278150679 0.001
-0.0008552690334 -0.0004556301358 0.002
-0.0004236761604 -0.0002278150679 0.001
-0.0004177386259 -0.0002278150679 0.001
-0.01080974564 -0.005923191766 0.026
-0.01117206728 -0.006151006834 0.027
-0.01111862947 -0.006151006834 0.027
-0.01106519166 -0.006151006834 0.027
-0.01101175385 -0.006151006834 0.027
-0.01095831604 -0.006151006834 0.027
-0.01090487823 -0.006151006834 0.027
-0.01085144042 -0.006151006834 0.027
-0.01079800261 -0.006151006834 0.027
-0.01114251164 -0.006378821902 0.028
-0.01108709465 -0.006378821902 0.028
-0.01103167766 -0.006378821902 0.028
-0.01097626067 -0.006378821902 0.028
-0.01092084369 -0.006378821902 0.028
-0.0108654267 -0.006378821902 0.028
-0.01081000971 -0.006378821902 0.028
-0.01075459272 -0.006378821902 0.028
-0.01069917573 -0.006378821902 0.028
-0.01064375874 -0.006378821902 0.028
-0.01058834175 -0.006378821902 0.028
-0.01053292477 -0.006378821902 0.028
-0.01047750778 -0.006378821902 0.028
-0.01042209079 -0.006378821902 0.028
-0.01073691215 -0.006606636969 0.029
-0.01067951598 -0.006606636969 0.029
-0.01062211982 -0.006606636969 0.029
-0.01056472365 -0.006606636969 0.029
-0.01050732748 -0.006606636969 0.029
-0.01044993132 -0.006606636969 0.029
-0.01039253515 -0.006606636969 0.029
-0.01033513898 -0.006606636969 0.029
-0.01027774282 -0.006606636969 0.029
-0.01022034665 -0.006606636969 0.029
-0.01051339705 -0.006834452037 0.03
-0.01045402171 -0.006834452037 0.03
-0.01039464636 -0.006834452037 0.03
-0.01033527102 -0.006834452037 0.03
-0.01027589567 -0.006834452037 0.03
-0.01021652033 -0.006834452037 0.03
-0.01049571648 -0.007062267105 0.031
-0.01043436196 -0.007062267105 0.031
-0.01037300744 -0.007062267105 0.031
-0.01031165291 -0.007062267105 0.031
-0.01025029839 -0.007062267105 0.031
-0.01018894387 -0.007062267105 0.031
-0.01012758934 -0.007062267105 0.031
-0.01006623482 -0.007062267105 0.031
-0.0100048803 -0.007062267105 0.031
-0.009943525775 -0.007062267105 0.031
-0.009882171252 -0.007062267105 0.031
-0.009820816729 -0.007062267105 0.031
-0.009759462206 -0.007062267105 0.031
-0.009698107683 -0.007062267105 0.031
-0.00963675316 -0.007062267105 0.031
-0.009575398637 -0.007062267105 0.031
-0.009514044114 -0.007062267105 0.031
-0.009452689591 -0.007062267105 0.031
-0.009391335068 -0.007062267105 0.031
-0.009329980545 -0.007062267105 0.031
-0.009268626022 -0.007062267105 0.031
-0.009207271499 -0.007062267105 0.031
-0.009145916976 -0.007062267105 0.031
-0.009084562453 -0.007062267105 0.031
-0.00902320793 -0.007062267105 0.031
-0.008961853407 -0.007062267105 0.031
-0.008900498884 -0.007062267105 0.031
-0.008839144361 -0.007062267105 0.031
-0.008777789838 -0.007062267105 0.031
-0.008997610647 -0.007290082173 0.032
-0.008934276946 -0.007290082173 0.032
-0.008870943245 -0.007290082173 0.032
-0.008807609544 -0.007290082173 0.032
-0.008744275843 -0.007290082173 0.032
-0.008680942141 -0.007290082173 0.032
-0.00861760844 -0.007290082173 0.032
-0.008554274739 -0.007290082173 0.032
-0.008490941038 -0.007290082173 0.032
-0.008427607337 -0.007290082173 0.032
-0.008364273636 -0.007290082173 0.032
-0.008300939934 -0.007290082173 0.032
-0.008237606233 -0.007290082173 0.032
-0.008429718549 -0.007517897241 0.033
-0.008364405669 -0.007517897241 0.033
-0.00829909279 -0.007517897241 0.033
-0.008233779911 -0.007517897241 0.033
-0.008168467031 -0.007517897241 0.033
-0.008103154152 -0.007517897241 0.033
-0.008037841273 -0.007517897241 0.033
-0.007972528393 -0.007517897241 0.033
-0.007907215514 -0.007517897241 0.033
-0.008079536048 -0.007745712309 0.034
-0.00801224399 -0.007745712309 0.034
-0.007944951933 -0.007745712309 0.034
-0.007877659876 -0.007745712309 0.034
-0.007810367818 -0.007745712309 0.034
-0.007743075761 -0.007745712309 0.034
-0.007675783703 -0.007745712309 0.034
-0.008279829144 -0.008429157513 0.037
-0.0073193996 -0.007517897241 0.033
-0.0004396416194 -0.0004556301358 0.002
-0.0002119040971 -0.0002278150679 0.001
-0.0002059665626 -0.0002278150679 0.001
-0.0004040164125 -0.0004556301358 0.002
-0.006800986956 -0.007745712309 0.034
-0.006337595198 -0.007290082173 0.032
-0.007450685528 -0.008656972581 0.038
-0.006016836302 -0.007062267105 0.031
-0.006147594095 -0.007290082173 0.032
-0.005894127256 -0.007062267105 0.031
-0.00658538857 -0.007973527377 0.035
-0.005957592991 -0.007290082173 0.032
-0.006262650496 -0.007745712309 0.034
-0.006377574863 -0.007973527377 0.035
-0.0001782580683 -0.0002278150679 0.001
-0.0001703413557 -0.0002278150679 0.001
-0.0001683621775 -0.0002278150679 0.001
-0.0003288076424 -0.0004556301358 0.002
-0.000162424643 -0.0002278150679 0.001
-0.0001070076545 -0.0002278150679 0.001
-0.00010107012 -0.0002278150679 0.001
-0.004657670369 -0.0113907534 0.05
-0.004376363003 -0.01093512326 0.048
-0.004638142655 -0.01184638353 0.052
-0.004535225391 -0.01184638353 0.052
-0.004432308127 -0.01184638353 0.052
-0.004162875829 -0.0113907534 0.05
-0.004063916921 -0.0113907534 0.05
-0.0003865999105 -0.00113907534 0.005
-7.336162577e-05 -0.0002278150679 0.001
-6.742409129e-05 -0.0002278150679 0.001
-6.544491313e-05 -0.0002278150679 0.001
-0.0001229731136 -0.0004556301358 0.002
-0.009997239612 -0.03827293141 0.168
-0.009837322282 -0.03895637661 0.171
-0.000166647067 -0.0006834452037 0.003
-5.1590666e-05 -0.0002278150679 0.001
0.001342937735 -0.001594705475 0.007
0.001162964556 -0.001366890407 0.006
0.001370646229 -0.001594705475 0.007
0.001186714694 -0.001366890407 0.006
0.001198589763 -0.001366890407 0.006
0.001210464832 -0.001366890407 0.006
0.001018616584 -0.00113907534 0.005
0.001028512475 -0.00113907534 0.005
0.001038408366 -0.00113907534 0.005
0.001048304257 -0.00113907534 0.005
0.001058200147 -0.00113907534 0.005
0.001068096038 -0.00113907534 0.005
0.001077991929 -0.00113907534 0.005
0.00108788782 -0.00113907534 0.005
0.001097783711 -0.00113907534 0.005
0.001107679601 -0.00113907534 0.005
0.001117575492 -0.00113907534 0.005
0.001127471383 -0.00113907534 0.005
0.001137367274 -0.00113907534 0.005
0.001147263165 -0.00113907534 0.005
0.001157159055 -0.00113907534 0.005
0.001167054946 -0.00113907534 0.005
0.001176950837 -0.00113907534 0.005
0.001186846728 -0.00113907534 0.005
0.001196742619 -0.00113907534 0.005
0.00120663851 -0.00113907534 0.005
0.0012165344 -0.00113907534 0.005
0.001226430291 -0.00113907534 0.005
0.0009890609456 -0.0009112602716 0.004
0.0007477332437 -0.0006834452037 0.003
0.0007536707781 -0.0006834452037 0.003
0.001012811083 -0.0009112602716 0.004
0.001275909745 -0.00113907534 0.005
0.001028644509 -0.0009112602716 0.004
0.0005182806107 -0.0004556301358 0.002
0.001076144785 -0.0009112602716 0.004
0.001355076872 -0.00113907534 0.005
0.001364972762 -0.00113907534 0.005
0.001374868653 -0.00113907534 0.005
0.001384764544 -0.00113907534 0.005
0.001394660435 -0.00113907534 0.005
0.001404556326 -0.00113907534 0.005
0.001414452216 -0.00113907534 0.005
0.001139478486 -0.0009112602716 0.004
0.002007941597 -0.001594705475 0.007
0.001732967867 -0.001366890407 0.006
0.001744842936 -0.001366890407 0.006
0.002049504339 -0.001594705475 0.007
0.001473827561 -0.00113907534 0.005
0.001780468143 -0.001366890407 0.006
0.001792343212 -0.001366890407 0.006
0.00180421828 -0.001366890407 0.006
0.001513411125 -0.00113907534 0.005
0.001523307015 -0.00113907534 0.005
0.001839843487 -0.001366890407 0.006
0.002160338316 -0.001594705475 0.007
0.001863593625 -0.001366890407 0.006
0.001875468694 -0.001366890407 0.006
0.001887343763 -0.001366890407 0.006
0.001899218832 -0.001366890407 0.006
0.001911093901 -0.001366890407 0.006
0.001602474142 -0.00113907534 0.005
0.001612370033 -0.00113907534 0.005
0.001622265923 -0.00113907534 0.005
0.001632161814 -0.00113907534 0.005
0.001642057705 -0.00113907534 0.005
0.001651953596 -0.00113907534 0.005
0.001661849487 -0.00113907534 0.005
0.001671745377 -0.00113907534 0.005
0.001681641268 -0.00113907534 0.005
0.001691537159 -0.00113907534 0.005
0.00170143305 -0.00113907534 0.005
0.001711328941 -0.00113907534 0.005
0.001721224832 -0.00113907534 0.005
0.001731120722 -0.00113907534 0.005
0.001392813291 -0.0009112602716 0.004
0.001400730003 -0.0009112602716 0.004
0.001408646716 -0.0009112602716 0.004
0.001416563428 -0.0009112602716 0.004
0.001424480141 -0.0009112602716 0.004
0.001432396854 -0.0009112602716 0.004
0.001440313566 -0.0009112602716 0.004
0.001448230279 -0.0009112602716 0.004
0.002184220488 -0.001366890407 0.006
0.001464063704 -0.0009112602716 0.004
0.001471980417 -0.0009112602716 0.004
0.002219845694 -0.001366890407 0.006
0.001859767303 -0.00113907534 0.005
-0.06376147835 -0.02755202842 0.122
-0.06039608327 -0.02619701063 0.116
-0.06379723559 -0.02777786472 0.123
-0.0004296136948 -0.0002258362985 0.001
-0.0008433939644 -0.000451672597 0.002
-0.01205702398 -0.006549252656 0.029
-0.01117206728 -0.006097580059 0.027
-0.01111862947 -0.006097580059 0.027
-0.01106519166 -0.006097580059 0.027
-0.01101175385 -0.006097580059 0.027
-0.01095831604 -0.006097580059 0.027
-0.01090487823 -0.006097580059 0.027
-0.01085144042 -0.006097580059 0.027
-0.01079800261 -0.006097580059 0.027
-0.01114251164 -0.006323416358 0.028
-0.01108709465 -0.006323416358 0.028
-0.01103167766 -0.006323416358 0.028
-0.01097626067 -0.006323416358 0.028
-0.01092084369 -0.006323416358 0.028
-0.0108654267 -0.006323416358 0.028
-0.01081000971 -0.006323416358 0.028
-0.01075459272 -0.006323416358 0.028
-0.01069917573 -0.006323416358 0.028
-0.01064375874 -0.006323416358 0.028
-0.01058834175 -0.006323416358 0.028
-0.01053292477 -0.006323416358 0.028
-0.01047750778 -0.006323416358 0.028
-0.01042209079 -0.006323416358 0.028
-0.01073691215 -0.006549252656 0.029
-0.01067951598 -0.006549252656 0.029
-0.01062211982 -0.006549252656 0.029
-0.01056472365 -0.006549252656 0.029
-0.01050732748 -0.006549252656 0.029
-0.01044993132 -0.006549252656 0.029
-0.01039253515 -0.006549252656 0.029
-0.01033513898 -0.006549252656 0.029
-0.01027774282 -0.006549252656 0.029
-0.01022034665 -0.006549252656 0.029
-0.01051339705 -0.006775088955 0.03
-0.01045402171 -0.006775088955 0.03
-0.01039464636 -0.006775088955 0.03
-0.01033527102 -0.006775088955 0.03
-0.01027589567 -0.006775088955 0.03
-0.01021652033 -0.006775088955 0.03
-0.01049571648 -0.007000925253 0.031
-0.01043436196 -0.007000925253 0.031
-0.01037300744 -0.007000925253 0.031
-0.01031165291 -0.007000925253 0.031
-0.01025029839 -0.007000925253 0.031
-0.01018894387 -0.007000925253 0.031
-0.01012758934 -0.007000925253 0.031
-0.01006623482 -0.007000925253 0.031
-0.0100048803 -0.007000925253 0.031
-0.009943525775 -0.007000925253 0.031
-0.009882171252 -0.007000925253 0.031
-0.009820816729 -0.007000925253 0.031
-0.009759462206 -0.007000925253 0.031
-0.009698107683 -0.007000925253 0.031
-0.00963675316 -0.007000925253 0.031
-0.009575398637 -0.007000925253 0.031
-0.009514044114 -0.007000925253 0.031
-0.009452689591 -0.007000925253 0.031
-0.009391335068 -0.007000925253 0.031
-0.009329980545 -0.007000925253 0.031
-0.009268626022 -0.007000925253 0.031
-0.009207271499 -0.007000925253 0.031
-0.009145916976 -0.007000925253 0.031
-0.009084562453 -0.007000925253 0.031
-0.00902320793 -0.007000925253 0.031
-0.008961853407 -0.007000925253 0.031
-0.008900498884 -0.007000925253 0.031
-0.008839144361 -0.007000925253 0.031
-0.008777789838 -0.007000925253 0.031
-0.008716435315 -0.007000925253 0.031
-0.008934276946 -0.007226761552 0.032
-0.008870943245 -0.007226761552 0.032
-0.008807609544 -0.007226761552 0.032
-0.008744275843 -0.007226761552 0.032
-0.008680942141 -0.007226761552 0.032
-0.00861760844 -0.007226761552 0.032
-0.008554274739 -0.007226761552 0.032
-0.008490941038 -0.007226761552 0.032
-0.008427607337 -0.007226761552 0.032
-0.008364273636 -0.007226761552 0.032
-0.008300939934 -0.007226761552 0.032
-0.008237606233 -0.007226761552 0.032
-0.008174272532 -0.007226761552 0.032
-0.008364405669 -0.00745259785 0.033
-0.00829909279 -0.00745259785 0.033
-0.008233779911 -0.00745259785 0.033
-0.008168467031 -0.00745259785 0.033
-0.008103154152 -0.00745259785 0.033
-0.008037841273 -0.00745259785 0.033
-0.007972528393 -0.00745259785 0.033
-0.007907215514 -0.00745259785 0.033
-0.007841902635 -0.00745259785 0.033
-0.00801224399 -0.007678434149 0.034
-0.007944951933 -0.007678434149 0.034
-0.007877659876 -0.007678434149 0.034
-0.007810367818 -0.007678434149 0.034
-0.007743075761 -0.007678434149 0.034
-0.007675783703 -0.007678434149 0.034
-0.007384712479 -0.00745259785 0.033
-0.007984799564 -0.008130106746 0.036
-0.0004356832631 -0.000451672597 0.002
-0.0006416498257 -0.0006775088955 0.003
-0.0004238081942 -0.000451672597 0.002
-0.0004119331252 -0.000451672597 0.002
-0.0002039873844 -0.0002258362985 0.001
-0.007272295426 -0.008130106746 0.036
-0.006600957928 -0.00745259785 0.033
-0.006733694898 -0.007678434149 0.034
-0.006078190825 -0.007000925253 0.031
-0.006599110783 -0.007678434149 0.034
-0.007108155672 -0.008355943044 0.037
-0.006274393531 -0.00745259785 0.033
-0.006020926692 -0.007226761552 0.032
-0.005585243429 -0.006775088955 0.03
-0.006078454893 -0.00745259785 0.033
-0.006195358438 -0.007678434149 0.034
-0.000360474493 -0.000451672597 0.002
-0.0001782580683 -0.0002258362985 0.001
-0.0005288366705 -0.0006775088955 0.003
-0.0003446410677 -0.000451672597 0.002
-0.0006655319974 -0.000903345194 0.004
-0.000112945189 -0.0002258362985 0.001
-0.0001089868327 -0.0002258362985 0.001
-0.0002100569527 -0.000451672597 0.002
-0.0001030492982 -0.0002258362985 0.001
-9.909094187e-05 -0.0002258362985 0.001
-9.711176371e-05 -0.0002258362985 0.001
-0.0001902651711 -0.000451672597 0.002
-0.0001823484585 -0.000451672597 0.002
-0.004186361899 -0.01084014233 0.048
-0.004347071432 -0.01151765122 0.051
-0.004246133346 -0.01151765122 0.051
-0.004307751936 -0.01196932382 0.053
-0.003885658853 -0.01106597863 0.049
-7.534080393e-05 -0.0002258362985 0.001
-0.0001467232515 -0.000451672597 0.002
-0.0002141473428 -0.0006775088955 0.003
-6.346573496e-05 -0.0002258362985 0.001
-0.01005674699 -0.03816633445 0.169
-0.009837322282 -0.03861800704 0.171
0.001342937735 -0.001580854089 0.007
0.001162964556 -0.001355017791 0.006
0.001370646229 -0.001580854089 0.007
0.001186714694 -0.001355017791 0.006
0.001198589763 -0.001355017791 0.006
0.001210464832 -0.001355017791 0.006
0.001018616584 -0.001129181492 0.005
0.001028512475 -0.001129181492 0.005
0.001038408366 -0.001129181492 0.005
0.001048304257 -0.001129181492 0.005
0.001058200147 -0.001129181492 0.005
0.001068096038 -0.001129181492 0.005
0.001077991929 -0.001129181492 0.005
0.00108788782 -0.001129181492 0.005
0.001097783711 -0.001129181492 0.005
0.001107679601 -0.001129181492 0.005
0.001117575492 -0.001129181492 0.005
0.001127471383 -0.001129181492 0.005
0.001137367274 -0.001129181492 0.005
0.001147263165 -0.001129181492 0.005
0.001157159055 -0.001129181492 0.005
0.001167054946 -0.001129181492 0.005
0.001176950837 -0.001129181492 0.005
0.001186846728 -0.001129181492 0.005
0.001196742619 -0.001129181492 0.005
0.00120663851 -0.001129181492 0.005
0.0012165344 -0.001129181492 0.005
0.001226430291 -0.001129181492 0.005
0.0009890609456 -0.000903345194 0.004
0.0009969776582 -0.000903345194 0.004
0.001004894371 -0.000903345194 0.004
0.001012811083 -0.000903345194 0.004
0.001020727796 -0.000903345194 0.004
0.0007714833816 -0.0006775088955 0.003
0.0002591403054 -0.0002258362985 0.001
0.001076144785 -0.000903345194 0.004
0.001626092246 -0.001355017791 0.006
0.001364972762 -0.001129181492 0.005
0.001374868653 -0.001129181492 0.005
0.001384764544 -0.001129181492 0.005
0.001115728348 -0.000903345194 0.004
0.001404556326 -0.001129181492 0.005
0.001414452216 -0.001129181492 0.005
0.001139478486 -0.000903345194 0.004
0.001721092798 -0.001355017791 0.006
0.001444139889 -0.001129181492 0.005
0.001744842936 -0.001355017791 0.006
0.002049504339 -0.001580854089 0.007
0.001768593074 -0.001355017791 0.006
0.002077212833 -0.001580854089 0.007
0.001792343212 -0.001355017791 0.006
0.00180421828 -0.001355017791 0.006
0.001513411125 -0.001129181492 0.005
0.001827968418 -0.001355017791 0.006
0.001839843487 -0.001355017791 0.006
0.001851718556 -0.001355017791 0.006
0.001863593625 -0.001355017791 0.006
0.001562890579 -0.001129181492 0.005
0.001887343763 -0.001355017791 0.006
0.001899218832 -0.001355017791 0.006
0.001911093901 -0.001355017791 0.006
0.001602474142 -0.001129181492 0.005
0.001612370033 -0.001129181492 0.005
0.001622265923 -0.001129181492 0.005
0.001632161814 -0.001129181492 0.005
0.001642057705 -0.001129181492 0.005
0.001651953596 -0.001129181492 0.005
0.001661849487 -0.001129181492 0.005
0.001671745377 -0.001129181492 0.005
0.001681641268 -0.001129181492 0.005
0.001691537159 -0.001129181492 0.005
0.00170143305 -0.001129181492 0.005
0.001711328941 -0.001129181492 0.005
0.001721224832 -0.001129181492 0.005
0.001038672433 -0.0006775088955 0.003
0.0006964066453 -0.000451672597 0.002
0.0007003650016 -0.000451672597 0.002
0.0007043233579 -0.000451672597 0.002
0.001062422571 -0.0006775088955 0.003
0.001068360106 -0.0006775088955 0.003
0.001432396854 -0.000903345194 0.004
0.001440313566 -0.000903345194 0.004
0.001448230279 -0.000903345194 0.004
0.002548257235 -0.001580854089 0.007
0.00183007963 -0.001129181492 0.005
0.001471980417 -0.000903345194 0.004
0.002219845694 -0.001355017791 0.006
0.001859767303 -0.001129181492 0.005
0.0003739326387 -0.0002258362985 0.001
-0.06347832384 -0.02708676102 0.121
-0.06167093807 -0.02641518843 0.118
-0.0005206558903 -0.0002238575291 0.001
-0.0005166975339 -0.0002238575291 0.001
-0.001029436712 -0.0004477150582 0.002
-0.001532279998 -0.0006715725873 0.003
-0.0004276345167 -0.0002238575291 0.001
-0.0004236761604 -0.0002238575291 0.001
-0.01211442015 -0.006491868343 0.029
-0.01039398619 -0.005596438227 0.025
-0.01117206728 -0.006044153285 0.027
-0.01111862947 -0.006044153285 0.027
-0.01106519166 -0.006044153285 0.027
-0.01101175385 -0.006044153285 0.027
-0.01095831604 -0.006044153285 0.027
-0.01090487823 -0.006044153285 0.027
-0.01085144042 -0.006044153285 0.027
-0.01079800261 -0.006044153285 0.027
-0.01074456479 -0.006044153285 0.027
-0.01069112698 -0.006044153285 0.027
-0.01063768917 -0.006044153285 0.027
-0.01097626067 -0.006268010814 0.028
-0.01092084369 -0.006268010814 0.028
-0.0108654267 -0.006268010814 0.028
-0.01081000971 -0.006268010814 0.028
-0.01075459272 -0.006268010814 0.028
-0.01069917573 -0.006268010814 0.028
-0.01064375874 -0.006268010814 0.028
-0.01058834175 -0.006268010814 0.028
-0.01053292477 -0.006268010814 0.028
-0.01047750778 -0.006268010814 0.028
-0.01042209079 -0.006268010814 0.028
-0.01073691215 -0.006491868343 0.029
-0.01067951598 -0.006491868343 0.029
-0.01062211982 -0.006491868343 0.029
-0.01056472365 -0.006491868343 0.029
-0.01050732748 -0.006491868343 0.029
-0.01044993132 -0.006491868343 0.029
-0.01039253515 -0.006491868343 0.029
-0.01033513898 -0.006491868343 0.029
-0.01027774282 -0.006491868343 0.029
-0.01022034665 -0.006491868343 0.029
-0.01051339705 -0.006715725873 0.03
-0.01045402171 -0.006715725873 0.03
-0.01039464636 -0.006715725873 0.03
-0.01033527102 -0.006715725873 0.03
-0.01027589567 -0.006715725873 0.03
-0.01021652033 -0.006715725873 0.03
-0.01049571648 -0.006939583402 0.031
-0.01043436196 -0.006939583402 0.031
-0.01037300744 -0.006939583402 0.031
-0.01031165291 -0.006939583402 0.031
-0.01025029839 -0.006939583402 0.031
-0.01018894387 -0.006939583402 0.031
-0.01012758934 -0.006939583402 0.031
-0.01006623482 -0.006939583402 0.031
-0.0100048803 -0.006939583402 0.031
-0.009943525775 -0.006939583402 0.031
-0.009882171252 -0.006939583402 0.031
-0.009820816729 -0.006939583402 0.031
-0.009759462206 -0.006939583402 0.031
-0.009698107683 -0.006939583402 0.031
-0.00963675316 -0.006939583402 0.031
-0.009575398637 -0.006939583402 0.031
-0.009514044114 -0.006939583402 0.031
-0.009452689591 -0.006939583402 0.031
-0.009391335068 -0.006939583402 0.031
-0.009329980545 -0.006939583402 0.031
-0.009268626022 -0.006939583402 0.031
-0.009207271499 -0.006939583402 0.031
-0.009145916976 -0.006939583402 0.031
-0.009084562453 -0.006939583402 0.031
-0.00902320793 -0.006939583402 0.031
-0.008961853407 -0.006939583402 0.031
-0.008900498884 -0.006939583402 0.031
-0.008839144361 -0.006939583402 0.031
-0.008777789838 -0.006939583402 0.031
-0.008716435315 -0.006939583402 0.031
-0.008655080792 -0.006939583402 0.031
-0.008870943245 -0.007163440931 0.032
-0.008807609544 -0.007163440931 0.032
-0.008744275843 -0.007163440931 0.032
