# .PCD v0.7 - Point Cloud Data file format
VERSION 0.7
FIELDS x y z
SIZE 4 4 4
TYPE F F F
COUNT 1 1 1
WIDTH 1279
HEIGHT 1
VIEWPOINT 0 0 0 1 0 0 0
POINTS 1279
DATA ascii
0.0007869193767 0.0006594782288 0.021
0.0008284821181 0.0006594782288 0.021
0.0008700448595 0.0006594782288 0.021
0.0009116076009 0.0006594782288 0.021
0.0009531703423 0.0006594782288 0.021
0.0009947330837 0.0006594782288 0.021
0.001036295825 0.0006594782288 0.021
0.001077858566 0.0006594782288 0.021
0.001119421308 0.0006594782288 0.021
0.001160984049 0.0006594782288 0.021
0.001202546791 0.0006594782288 0.021
0.001244109532 0.0006594782288 0.021
0.001285672273 0.0006594782288 0.021
0.001327235015 0.0006594782288 0.021
0.001368797756 0.0006594782288 0.021
0.001410360498 0.0006594782288 0.021
0.001451923239 0.0006594782288 0.021
0.00149348598 0.0006594782288 0.021
0.001535048722 0.0006594782288 0.021
0.001576611463 0.0006594782288 0.021
0.001618174205 0.0006594782288 0.021
0.001659736946 0.0006594782288 0.021
0.001701299687 0.0006594782288 0.021
0.001742862429 0.0006594782288 0.021
0.001699452543 0.0006280745036 0.02
0.001739036106 0.0006280745036 0.02
0.001778619669 0.0006280745036 0.02
0.001818203233 0.0006280745036 0.02
0.001857786796 0.0006280745036 0.02
0.001897370359 0.0006280745036 0.02
0.001936953922 0.0006280745036 0.02
0.001976537486 0.0006280745036 0.02
0.002016121049 0.0006280745036 0.02
0.002055704612 0.0006280745036 0.02
0.002095288175 0.0006280745036 0.02
0.002134871738 0.0006280745036 0.02
0.002174455302 0.0006280745036 0.02
0.002214038865 0.0006280745036 0.02
0.002253622428 0.0006280745036 0.02
0.002293205991 0.0006280745036 0.02
0.002332789555 0.0006280745036 0.02
0.002372373118 0.0006280745036 0.02
0.002411956681 0.0006280745036 0.02
0.002451540244 0.0006280745036 0.02
0.002491123808 0.0006280745036 0.02
0.002530707371 0.0006280745036 0.02
0.002570290934 0.0006280745036 0.02
0.002609874497 0.0006280745036 0.02
0.00264945806 0.0006280745036 0.02
0.002689041624 0.0006280745036 0.02
0.002728625187 0.0006280745036 0.02
0.00276820875 0.0006280745036 0.02
0.002807792313 0.0006280745036 0.02
0.002847375877 0.0006280745036 0.02
0.00288695944 0.0006280745036 0.02
0.002926543003 0.0006280745036 0.02
0.002966126566 0.0006280745036 0.02
0.00300571013 0.0006280745036 0.02
0.003045293693 0.0006280745036 0.02
0.003084877256 0.0006280745036 0.02
0.002968237778 0.0005966707784 0.019
0.003005842163 0.0005966707784 0.019
0.003043446548 0.0005966707784 0.019
0.003081050933 0.0005966707784 0.019
0.003118655319 0.0005966707784 0.019
0.003156259704 0.0005966707784 0.019
0.003193864089 0.0005966707784 0.019
0.003231468474 0.0005966707784 0.019
0.003269072859 0.0005966707784 0.019
0.003306677244 0.0005966707784 0.019
0.003344281629 0.0005966707784 0.019
0.003381886014 0.0005966707784 0.019
0.003419490399 0.0005966707784 0.019
0.003457094784 0.0005966707784 0.019
0.003494699169 0.0005966707784 0.019
0.003532303554 0.0005966707784 0.019
0.003569907939 0.0005966707784 0.019
0.003607512324 0.0005966707784 0.019
0.003645116709 0.0005966707784 0.019
0.003682721095 0.0005966707784 0.019
0.003524518875 0.0005652670533 0.018
0.003560144082 0.0005652670533 0.018
0.003595769289 0.0005652670533 0.018
0.003631394496 0.0005652670533 0.018
0.003667019703 0.0005652670533 0.018
0.00370264491 0.0005652670533 0.018
0.003738270117 0.0005652670533 0.018
0.003773895324 0.0005652670533 0.018
0.003809520531 0.0005652670533 0.018
0.003845145738 0.0005652670533 0.018
0.003880770944 0.0005652670533 0.018
0.003916396151 0.0005652670533 0.018
0.003952021358 0.0005652670533 0.018
0.003987646565 0.0005652670533 0.018
0.004023271772 0.0005652670533 0.018
0.004058896979 0.0005652670533 0.018
0.004094522186 0.0005652670533 0.018
0.004130147393 0.0005652670533 0.018
0.0041657726 0.0005652670533 0.018
0.004201397807 0.0005652670533 0.018
0.004237023014 0.0005652670533 0.018
0.00427264822 0.0005652670533 0.018
0.004308273427 0.0005652670533 0.018
0.004102570932 0.0005338633281 0.017
0.004136216961 0.0005338633281 0.017
0.00416986299 0.0005338633281 0.017
0.004203509019 0.0005338633281 0.017
0.004237155047 0.0005338633281 0.017
0.004270801076 0.0005338633281 0.017
0.004304447105 0.0005338633281 0.017
0.004338093134 0.0005338633281 0.017
0.004371739162 0.0005338633281 0.017
0.004405385191 0.0005338633281 0.017
0.004177911736 0.0005024596029 0.016
0.004209578587 0.0005024596029 0.016
0.004241245437 0.0005024596029 0.016
0.004272912288 0.0005024596029 0.016
0.004304579139 0.0005024596029 0.016
0.004336245989 0.0005024596029 0.016
0.00436791284 0.0005024596029 0.016
0.00439957969 0.0005024596029 0.016
0.004431246541 0.0005024596029 0.016
0.004462913392 0.0005024596029 0.016
0.004494580242 0.0005024596029 0.016
0.004526247093 0.0005024596029 0.016
0.004273044322 0.0004710558777 0.015
0.004015883195 0.0004396521525 0.014
0.003465935733 0.0003768447022 0.012
0.004943721651 0.0005338633281 0.017
0.004391795012 0.0004710558777 0.015
0.003242420635 0.000345440977 0.011
0.001186978762 0.0001256149007 0.004
0.0003007030467 3.140372518e-05 0.001
0.0003026822249 3.140372518e-05 0.001
-0.00836981374 0.0004673549243 0.014
-0.007746240585 0.0004339724297 0.013
-0.008314396751 0.0004673549243 0.014
-0.007694781953 0.0004339724297 0.013
-0.008258979763 0.0004673549243 0.014
-0.008231271269 0.0004673549243 0.014
-0.008203562774 0.0004673549243 0.014
-0.00817585428 0.0004673549243 0.014
-0.008148145786 0.0004673549243 0.014
-0.008120437292 0.0004673549243 0.014
-0.008092728797 0.0004673549243 0.014
-0.008641093182 0.0005007374189 0.015
-0.008611405509 0.0005007374189 0.015
-0.008581717837 0.0005007374189 0.015
-0.008552030165 0.0005007374189 0.015
-0.008522342492 0.0005007374189 0.015
-0.00849265482 0.0005007374189 0.015
-0.008462967147 0.0005007374189 0.015
-0.008433279475 0.0005007374189 0.015
-0.008403591802 0.0005007374189 0.015
-0.00837390413 0.0005007374189 0.015
-0.008344216458 0.0005007374189 0.015
-0.008314528785 0.0005007374189 0.015
-0.008284841113 0.0005007374189 0.015
-0.00825515344 0.0005007374189 0.015
-0.008773830152 0.0005341199135 0.016
-0.008742163302 0.0005341199135 0.016
-0.008710496451 0.0005341199135 0.016
-0.008678829601 0.0005341199135 0.016
-0.00864716275 0.0005341199135 0.016
-0.008077027406 0.0005007374189 0.015
-0.008583829049 0.0005341199135 0.016
-0.008017652061 0.0005007374189 0.015
-0.009053026307 0.0005675024081 0.017
-0.009019380278 0.0005675024081 0.017
-0.007400016441 0.0004673549243 0.014
-0.009478681646 0.0006008849027 0.018
-0.008393827945 0.0005341199135 0.016
-0.008884796163 0.0005675024081 0.017
-0.008851150135 0.0005675024081 0.017
-0.007780150682 0.0005007374189 0.015
-0.007233765475 0.0004673549243 0.014
-0.007720775337 0.0005007374189 0.015
-0.009229305197 0.0006008849027 0.018
-0.01021519999 0.0006676498919 0.02
-0.007631712319 0.0005007374189 0.015
-0.01064283451 0.0007010323865 0.021
-0.008581981905 0.0005675024081 0.017
-0.008013825738 0.0005341199135 0.016
-0.000997769861 6.676498919e-05 0.002
-0.0004949265742 3.338249459e-05 0.001
-0.000492947396 3.338249459e-05 0.001
-0.001948039446 0.0001335299784 0.004
-0.0004830515052 3.338249459e-05 0.001
-0.001443216981 0.0001001474838 0.003
-0.0009502695851 6.676498919e-05 0.002
-0.002355882181 0.000166912473 0.005
-0.0009304778035 6.676498919e-05 0.002
-0.0004612805454 3.338249459e-05 0.001
-0.00122946574 0.0001001474838 0.003
-0.002029317785 0.000166912473 0.005
-0.0004019052006 3.338249459e-05 0.001
-0.0003504465684 3.338249459e-05 0.001
-0.001039464636 0.0001001474838 0.003
-0.0003425298557 3.338249459e-05 0.001
-0.0006811013551 6.676498919e-05 0.002
-0.0009860268258 0.0001001474838 0.003
-0.0003266964304 3.338249459e-05 0.001
-0.000320758896 3.338249459e-05 0.001
-0.0007604005154 0.0001001474838 0.003
-0.0007425879119 0.0001001474838 0.003
-0.001207958847 0.000166912473 0.005
-0.005750702192 0.0008011798702 0.024
-0.0007010251706 0.0001001474838 0.003
-0.0006832125671 0.0001001474838 0.003
-0.000223779166 3.338249459e-05 0.001
-0.0008871999515 0.0001335299784 0.004
-0.0004277665505 6.676498919e-05 0.002
-0.0001881539591 3.338249459e-05 0.001
-0.000372349562 6.676498919e-05 0.002
-0.0003525577803 6.676498919e-05 0.002
-0.0001723205338 3.338249459e-05 0.001
-0.0001703413557 3.338249459e-05 0.001
-0.0003288076424 6.676498919e-05 0.002
-0.0009626727893 0.0002002949676 0.006
-0.0003129742171 6.676498919e-05 0.002
-0.0003090158608 6.676498919e-05 0.002
-0.0001505495741 3.338249459e-05 0.001
-0.0001426328614 3.338249459e-05 0.001
-0.0005626147331 0.0001335299784 0.004
-0.0002694322976 6.676498919e-05 0.002
-0.0003625857049 0.0001001474838 0.003
-0.000237765447 6.676498919e-05 0.002
-0.0001109660108 3.338249459e-05 0.001
-0.0002179736654 6.676498919e-05 0.002
-0.0004201139054 0.0001335299784 0.004
-0.002324612761 0.0007677973757 0.023
-0.001981818837 0.0006676498919 0.02
-0.00184512351 0.0006342673973 0.019
-0.0003805303422 0.0001335299784 0.004
-0.001863068148 0.0006676498919 0.02
-0.002097007272 0.0007677973757 0.023
-0.001783901021 0.0006676498919 0.02
-0.002005965077 0.0007677973757 0.023
-0.001960443979 0.0007677973757 0.023
-0.001581892815 0.0006342673973 0.019
-0.001788123445 0.0007344148811 0.022
-0.001744581526 0.0007344148811 0.022
-0.002010319534 0.0008679448594 0.026
-0.001582156883 0.0007010323865 0.021
-0.001613955767 0.0007344148811 0.022
-0.001570413847 0.0007344148811 0.022
-0.001596275197 0.0007677973757 0.023
-0.0015507541 0.0007677973757 0.023
-0.001636122828 0.0008345623648 0.025
-0.001396246169 0.0007344148811 0.022
-0.00135270425 0.0007344148811 0.022
-0.00130916233 0.0007344148811 0.022
-0.001323148611 0.0007677973757 0.023
-0.001277627513 0.0007677973757 0.023
-0.001017827039 0.0006342673973 0.019
-0.00103181332 0.0006676498919 0.02
-0.001091452732 0.0007344148811 0.022
-0.001333704671 0.0009347098486 0.028
-0.001004368893 0.0007344148811 0.022
-0.0008298051136 0.0006342673973 0.019
-0.0009172850541 0.0007344148811 0.022
-0.0007943119405 0.0006676498919 0.02
-0.0009811468905 0.0008679448594 0.026
-0.0007509020548 0.0007010323865 0.021
-0.0006755612508 0.0006676498919 0.02
-0.0007949721095 0.0008345623648 0.025
-0.0006262138306 0.0007010323865 0.021
-0.0006681726734 0.0008011798702 0.024
-0.0005172269979 0.0006676498919 0.02
-0.0004776434347 0.0006676498919 0.02
-0.0004818658586 0.0007344148811 0.022
-0.0003984763082 0.0006676498919 0.02
-0.0003768373823 0.0007010323865 0.021
-0.0003193091818 0.0006676498919 0.02
-0.0002797256185 0.0006676498919 0.02
-0.0002641562609 0.0007344148811 0.022
-0.0002005584921 0.0006676498919 0.02
-0.0001609749289 0.0006676498919 0.02
-0.0001153217973 0.0006342673973 0.019
-8.998858264e-05 0.0007344148811 0.022
-4.433545113e-05 0.0007010323865 0.021
-2.772709738e-06 0.0007010323865 0.021
3.879003165e-05 0.0007010323865 0.021
8.035277304e-05 0.0007010323865 0.021
0.0001219155144 0.0007010323865 0.021
0.0001634782558 0.0007010323865 0.021
0.0002050409972 0.0007010323865 0.021
0.0002466037386 0.0007010323865 0.021
0.00028816648 0.0007010323865 0.021
0.0003297292214 0.0007010323865 0.021
0.0003712919628 0.0007010323865 0.021
0.0004128547042 0.0007010323865 0.021
0.0004544174456 0.0007010323865 0.021
0.000495980187 0.0007010323865 0.021
0.0005375429283 0.0007010323865 0.021
0.0005791056697 0.0007010323865 0.021
0.0006206684111 0.0007010323865 0.021
0.0006622311525 0.0007010323865 0.021
0.0007037938939 0.0007010323865 0.021
0.0007453566353 0.0007010323865 0.021
0.0007869193767 0.0007010323865 0.021
0.0008284821181 0.0007010323865 0.021
0.0008700448595 0.0007010323865 0.021
0.0009116076009 0.0007010323865 0.021
0.0009531703423 0.0007010323865 0.021
0.0009947330837 0.0007010323865 0.021
0.001036295825 0.0007010323865 0.021
0.001077858566 0.0007010323865 0.021
0.001119421308 0.0007010323865 0.021
0.001160984049 0.0007010323865 0.021
0.001202546791 0.0007010323865 0.021
0.001244109532 0.0007010323865 0.021
0.001224449784 0.0006676498919 0.02
0.001264033347 0.0006676498919 0.02
0.001303616911 0.0006676498919 0.02
0.001343200474 0.0006676498919 0.02
0.001382784037 0.0006676498919 0.02
0.0014223676 0.0006676498919 0.02
0.001461951164 0.0006676498919 0.02
0.001501534727 0.0006676498919 0.02
0.00154111829 0.0006676498919 0.02
0.001580701853 0.0006676498919 0.02
0.001620285416 0.0006676498919 0.02
0.00165986898 0.0006676498919 0.02
0.001699452543 0.0006676498919 0.02
0.001739036106 0.0006676498919 0.02
0.001778619669 0.0006676498919 0.02
0.001818203233 0.0006676498919 0.02
0.001857786796 0.0006676498919 0.02
0.001897370359 0.0006676498919 0.02
0.001936953922 0.0006676498919 0.02
0.001976537486 0.0006676498919 0.02
0.002016121049 0.0006676498919 0.02
0.002055704612 0.0006676498919 0.02
0.002095288175 0.0006676498919 0.02
0.002134871738 0.0006676498919 0.02
0.002174455302 0.0006676498919 0.02
0.002214038865 0.0006676498919 0.02
0.002253622428 0.0006676498919 0.02
0.002293205991 0.0006676498919 0.02
0.002332789555 0.0006676498919 0.02
0.002372373118 0.0006676498919 0.02
0.002411956681 0.0006676498919 0.02
0.002451540244 0.0006676498919 0.02
0.002366567617 0.0006342673973 0.019
0.002404172002 0.0006342673973 0.019
0.002441776387 0.0006342673973 0.019
0.002479380772 0.0006342673973 0.019
0.002516985157 0.0006342673973 0.019
0.002554589543 0.0006342673973 0.019
0.002592193928 0.0006342673973 0.019
0.002629798313 0.0006342673973 0.019
0.002667402698 0.0006342673973 0.019
0.002705007083 0.0006342673973 0.019
0.002742611468 0.0006342673973 0.019
0.002780215853 0.0006342673973 0.019
0.002817820238 0.0006342673973 0.019
0.002855424623 0.0006342673973 0.019
0.002893029008 0.0006342673973 0.019
0.002930633393 0.0006342673973 0.019
0.002968237778 0.0006342673973 0.019
0.003005842163 0.0006342673973 0.019
0.003043446548 0.0006342673973 0.019
0.003081050933 0.0006342673973 0.019
0.003118655319 0.0006342673973 0.019
0.003156259704 0.0006342673973 0.019
0.003193864089 0.0006342673973 0.019
0.003231468474 0.0006342673973 0.019
0.003269072859 0.0006342673973 0.019
0.003306677244 0.0006342673973 0.019
0.003344281629 0.0006342673973 0.019
0.003381886014 0.0006342673973 0.019
0.003419490399 0.0006342673973 0.019
0.003457094784 0.0006342673973 0.019
0.003494699169 0.0006342673973 0.019
0.003532303554 0.0006342673973 0.019
0.003382018048 0.0006008849027 0.018
0.003417643255 0.0006008849027 0.018
0.003453268462 0.0006008849027 0.018
0.003488893669 0.0006008849027 0.018
0.003524518875 0.0006008849027 0.018
0.003560144082 0.0006008849027 0.018
0.003595769289 0.0006008849027 0.018
0.003631394496 0.0006008849027 0.018
0.003667019703 0.0006008849027 0.018
0.00370264491 0.0006008849027 0.018
0.003738270117 0.0006008849027 0.018
0.003773895324 0.0006008849027 0.018
0.003809520531 0.0006008849027 0.018
0.003845145738 0.0006008849027 0.018
0.003880770944 0.0006008849027 0.018
0.003916396151 0.0006008849027 0.018
0.003952021358 0.0006008849027 0.018
0.003987646565 0.0006008849027 0.018
0.004023271772 0.0006008849027 0.018
0.004058896979 0.0006008849027 0.018
0.004094522186 0.0006008849027 0.018
0.004130147393 0.0006008849027 0.018
0.003934340789 0.0005675024081 0.017
0.003967986817 0.0005675024081 0.017
0.004001632846 0.0005675024081 0.017
0.004035278875 0.0005675024081 0.017
0.004068924904 0.0005675024081 0.017
0.004102570932 0.0005675024081 0.017
0.004136216961 0.0005675024081 0.017
0.00416986299 0.0005675024081 0.017
0.004203509019 0.0005675024081 0.017
0.004237155047 0.0005675024081 0.017
0.004270801076 0.0005675024081 0.017
0.004304447105 0.0005675024081 0.017
0.004338093134 0.0005675024081 0.017
0.004114578035 0.0005341199135 0.016
0.004146244886 0.0005341199135 0.016
0.004177911736 0.0005341199135 0.016
0.004209578587 0.0005341199135 0.016
0.004241245437 0.0005341199135 0.016
0.004272912288 0.0005341199135 0.016
0.004304579139 0.0005341199135 0.016
0.004336245989 0.0005341199135 0.016
0.00436791284 0.0005341199135 0.016
0.00439957969 0.0005341199135 0.016
0.004431246541 0.0005341199135 0.016
0.004462913392 0.0005341199135 0.016
0.004494580242 0.0005341199135 0.016
0.004243356649 0.0005007374189 0.015
0.004273044322 0.0005007374189 0.015
0.004876429594 0.0005675024081 0.017
0.004043591689 0.0004673549243 0.014
0.004071300183 0.0004673549243 0.014
0.004099008677 0.0004673549243 0.014
0.0002947655123 3.338249459e-05 0.001
0.0003105989376 3.338249459e-05 0.001
-0.0006037813731 3.536126401e-05 0.001
-0.001805406585 0.000106083792 0.003
-0.007174126063 0.0004243351681 0.012
-0.008342105246 0.0004950576961 0.014
-0.008908282234 0.0005304189601 0.015
-0.008878594561 0.0005304189601 0.015
-0.008848906889 0.0005304189601 0.015
-0.008231271269 0.0004950576961 0.014
-0.008203562774 0.0004950576961 0.014
-0.00817585428 0.0004950576961 0.014
-0.008148145786 0.0004950576961 0.014
-0.008120437292 0.0004950576961 0.014
-0.008092728797 0.0004950576961 0.014
-0.008065020303 0.0004950576961 0.014
-0.008037311809 0.0004950576961 0.014
-0.008581717837 0.0005304189601 0.015
-0.008552030165 0.0005304189601 0.015
-0.008522342492 0.0005304189601 0.015
-0.00849265482 0.0005304189601 0.015
-0.008462967147 0.0005304189601 0.015
-0.008433279475 0.0005304189601 0.015
-0.008403591802 0.0005304189601 0.015
-0.00837390413 0.0005304189601 0.015
-0.008344216458 0.0005304189601 0.015
-0.008314528785 0.0005304189601 0.015
-0.008284841113 0.0005304189601 0.015
-0.00825515344 0.0005304189601 0.015
-0.008225465768 0.0005304189601 0.015
-0.008195778096 0.0005304189601 0.015
-0.008166090423 0.0005304189601 0.015
-0.008136402751 0.0005304189601 0.015
-0.009187610422 0.0006011414881 0.017
-0.0086154959 0.0005657802241 0.016
-0.00965680768 0.0006365027521 0.018
-0.008017652061 0.0005304189601 0.015
-0.009053026307 0.0006011414881 0.017
-0.009019380278 0.0006011414881 0.017
-0.005814298632 0.0003889739041 0.011
-0.008952088221 0.0006011414881 0.017
-0.007869213699 0.0005304189601 0.015
-0.008362161095 0.0005657802241 0.016
-0.008851150135 0.0006011414881 0.017
-0.008298827394 0.0005657802241 0.016
-0.008783858077 0.0006011414881 0.017
-0.009264930404 0.0006365027521 0.018
-0.00871656602 0.0006011414881 0.017
-0.007661399992 0.0005304189601 0.015
-0.008140493141 0.0005657802241 0.016
-0.008615627933 0.0006011414881 0.017
-0.00908680437 0.0006365027521 0.018
-0.007542649302 0.0005304189601 0.015
-0.008013825738 0.0005657802241 0.016
-0.008979928749 0.0006365027521 0.018
-0.007453586285 0.0005304189601 0.015
-0.007918825187 0.0005657802241 0.016
-0.00739421094 0.0005304189601 0.015
-0.001963872871 0.000141445056 0.004
-0.01026876983 0.0007425865441 0.021
-0.007760490934 0.0005657802241 0.016
-0.008694927094 0.0006365027521 0.018
-0.000481072327 3.536126401e-05 0.001
-0.0009581862978 7.072252801e-05 0.002
-0.0009542279414 7.072252801e-05 0.002
-0.007507156129 0.0005657802241 0.016
-0.00140165424 0.000106083792 0.003
-0.0004553430109 3.536126401e-05 0.001
-0.0004533638328 3.536126401e-05 0.001
-0.0004513846546 3.536126401e-05 0.001
-0.0004474262983 3.536126401e-05 0.001
-0.001385952848 0.000141445056 0.004
-0.0003425298557 3.536126401e-05 0.001
-0.0003405506776 3.536126401e-05 0.001
-0.0003385714994 3.536126401e-05 0.001
-0.0006731846425 7.072252801e-05 0.002
-0.0006613095735 7.072252801e-05 0.002
-0.001298869009 0.000141445056 0.004
-0.0002534668385 3.536126401e-05 0.001
-0.000247529304 3.536126401e-05 0.001
-0.0009822005033 0.000141445056 0.004
-0.001188167066 0.00017680632 0.005
-0.0004633917574 7.072252801e-05 0.002
-0.000223779166 3.536126401e-05 0.001
-0.0002198208097 3.536126401e-05 0.001
-0.0004356832631 7.072252801e-05 0.002
-0.0002158624534 3.536126401e-05 0.001
-0.0002119040971 3.536126401e-05 0.001
-0.0004198498378 7.072252801e-05 0.002
-0.0001921123155 3.536126401e-05 0.001
-0.000186174781 3.536126401e-05 0.001
-0.000522899136 0.000106083792 0.003
-0.0003446410677 7.072252801e-05 0.002
-0.000336724355 7.072252801e-05 0.002
-0.0003327659987 7.072252801e-05 0.002
-0.0008121232152 0.00017680632 0.005
-0.0001584662867 3.536126401e-05 0.001
-0.0003050575045 7.072252801e-05 0.002
-0.0001505495741 3.536126401e-05 0.001
-0.000586364871 0.000141445056 0.004
-0.0002892240792 7.072252801e-05 0.002
-0.0002813073665 7.072252801e-05 0.002
-0.0004100859808 0.000106083792 0.003
-0.0001307577925 3.536126401e-05 0.001
-0.0001267994361 3.536126401e-05 0.001
-0.000124820258 3.536126401e-05 0.001
-0.0001188827235 3.536126401e-05 0.001
-0.000112945189 3.536126401e-05 0.001
-0.0001089868327 3.536126401e-05 0.001
-0.0007074908402 0.000247528848 0.007
-0.0001942235274 7.072252801e-05 0.002
-9.315340739e-05 3.536126401e-05 0.001
-0.0001823484585 7.072252801e-05 0.002
-0.0001704733895 7.072252801e-05 0.002
-0.0001665150332 7.072252801e-05 0.002
-0.0002438350153 0.000106083792 0.003
-0.001585983205 0.0007072252801 0.02
-7.534080393e-05 3.536126401e-05 0.001
-7.336162577e-05 3.536126401e-05 0.001
-0.001526871928 0.0007779478081 0.022
-0.0001725846014 0.000106083792 0.003
-5.356984416e-05 3.536126401e-05 0.001
-0.001186585318 0.0008133090722 0.023
-0.0003493916268 0.0002828901121 0.008
-0.0007922007286 0.0006718640161 0.019
-0.0007545963435 0.0006718640161 0.019
-0.0007924647962 0.0007425865441 0.021
-0.0006793875734 0.0006718640161 0.019
-0.0006417831883 0.0006718640161 0.019
-0.0006359776876 0.0007072252801 0.02
-0.0005665744182 0.0006718640161 0.019
-0.0006124916173 0.0007779478081 0.022
-0.0004655042981 0.0006365027521 0.018
-0.0005254077782 0.0007779478081 0.022
-0.0004380598715 0.0007072252801 0.02
-0.0004383239391 0.0007779478081 0.022
-0.0003947820195 0.0007779478081 0.022
-0.0003193091818 0.0007072252801 0.02
-0.0002657393376 0.0006718640161 0.019
-0.0002521491581 0.0007425865441 0.021
-0.0002206143413 0.0007779478081 0.022
-0.0001690236753 0.0007425865441 0.021
-0.0001274609339 0.0007425865441 0.021
-8.998858264e-05 0.0007779478081 0.022
-4.433545113e-05 0.0007425865441 0.021
-2.772709738e-06 0.0007425865441 0.021
3.879003165e-05 0.0007425865441 0.021
8.035277304e-05 0.0007425865441 0.021
0.0001219155144 0.0007425865441 0.021
0.0001634782558 0.0007425865441 0.021
0.0002050409972 0.0007425865441 0.021
0.0002466037386 0.0007425865441 0.021
0.00028816648 0.0007425865441 0.021
0.0003297292214 0.0007425865441 0.021
0.0003712919628 0.0007425865441 0.021
0.0004128547042 0.0007425865441 0.021
0.0004544174456 0.0007425865441 0.021
0.000495980187 0.0007425865441 0.021
0.0005375429283 0.0007425865441 0.021
0.0005791056697 0.0007425865441 0.021
0.0005911127725 0.0007072252801 0.02
0.0006306963357 0.0007072252801 0.02
0.000670279899 0.0007072252801 0.02
0.0007098634622 0.0007072252801 0.02
0.0007494470254 0.0007072252801 0.02
0.0007890305887 0.0007072252801 0.02
0.0008286141519 0.0007072252801 0.02
0.0008681977151 0.0007072252801 0.02
0.0009077812783 0.0007072252801 0.02
0.0009473648416 0.0007072252801 0.02
0.0009869484048 0.0007072252801 0.02
0.001026531968 0.0007072252801 0.02
0.001066115531 0.0007072252801 0.02
0.001105699094 0.0007072252801 0.02
0.001145282658 0.0007072252801 0.02
0.001184866221 0.0007072252801 0.02
0.001224449784 0.0007072252801 0.02
0.001264033347 0.0007072252801 0.02
0.001303616911 0.0007072252801 0.02
0.001343200474 0.0007072252801 0.02
0.001382784037 0.0007072252801 0.02
0.0014223676 0.0007072252801 0.02
0.001461951164 0.0007072252801 0.02
0.001501534727 0.0007072252801 0.02
0.00154111829 0.0007072252801 0.02
0.001580701853 0.0007072252801 0.02
0.001620285416 0.0007072252801 0.02
0.00165986898 0.0007072252801 0.02
0.001699452543 0.0007072252801 0.02
0.001739036106 0.0007072252801 0.02
0.001778619669 0.0007072252801 0.02
0.001818203233 0.0007072252801 0.02
0.001857786796 0.0007072252801 0.02
0.001897370359 0.0007072252801 0.02
0.001936953922 0.0007072252801 0.02
0.001976537486 0.0007072252801 0.02
0.002016121049 0.0007072252801 0.02
0.002055704612 0.0007072252801 0.02
0.002095288175 0.0007072252801 0.02
0.002134871738 0.0007072252801 0.02
0.002174455302 0.0007072252801 0.02
0.002214038865 0.0007072252801 0.02
0.002253622428 0.0007072252801 0.02
0.002293205991 0.0007072252801 0.02
0.002332789555 0.0007072252801 0.02
0.002372373118 0.0007072252801 0.02
0.002411956681 0.0007072252801 0.02
0.002451540244 0.0007072252801 0.02
0.002366567617 0.0006718640161 0.019
0.002404172002 0.0006718640161 0.019
0.002441776387 0.0006718640161 0.019
0.002479380772 0.0006718640161 0.019
0.002516985157 0.0006718640161 0.019
0.002554589543 0.0006718640161 0.019
0.002592193928 0.0006718640161 0.019
0.002629798313 0.0006718640161 0.019
0.002667402698 0.0006718640161 0.019
0.002705007083 0.0006718640161 0.019
0.002742611468 0.0006718640161 0.019
0.002780215853 0.0006718640161 0.019
0.002817820238 0.0006718640161 0.019
0.002855424623 0.0006718640161 0.019
0.002893029008 0.0006718640161 0.019
0.002930633393 0.0006718640161 0.019
0.002968237778 0.0006718640161 0.019
0.003005842163 0.0006718640161 0.019
0.003043446548 0.0006718640161 0.019
0.003081050933 0.0006718640161 0.019
0.003118655319 0.0006718640161 0.019
0.003156259704 0.0006718640161 0.019
0.003193864089 0.0006718640161 0.019
0.003231468474 0.0006718640161 0.019
0.003269072859 0.0006718640161 0.019
0.003306677244 0.0006718640161 0.019
0.003344281629 0.0006718640161 0.019
0.003381886014 0.0006718640161 0.019
0.00323951722 0.0006365027521 0.018
0.003275142427 0.0006365027521 0.018
0.003310767634 0.0006365027521 0.018
0.003346392841 0.0006365027521 0.018
0.003382018048 0.0006365027521 0.018
0.003417643255 0.0006365027521 0.018
0.003453268462 0.0006365027521 0.018
0.003488893669 0.0006365027521 0.018
0.003524518875 0.0006365027521 0.018
0.003560144082 0.0006365027521 0.018
0.003595769289 0.0006365027521 0.018
0.003631394496 0.0006365027521 0.018
0.003667019703 0.0006365027521 0.018
0.00370264491 0.0006365027521 0.018
0.003738270117 0.0006365027521 0.018
0.003773895324 0.0006365027521 0.018
0.003809520531 0.0006365027521 0.018
0.003845145738 0.0006365027521 0.018
0.003880770944 0.0006365027521 0.018
0.003916396151 0.0006365027521 0.018
0.003952021358 0.0006365027521 0.018
0.003987646565 0.0006365027521 0.018
0.004023271772 0.0006365027521 0.018
0.004058896979 0.0006365027521 0.018
0.003867048731 0.0006011414881 0.017
0.00390069476 0.0006011414881 0.017
0.003934340789 0.0006011414881 0.017
0.003967986817 0.0006011414881 0.017
0.004001632846 0.0006011414881 0.017
0.004035278875 0.0006011414881 0.017
0.004068924904 0.0006011414881 0.017
0.004102570932 0.0006011414881 0.017
0.004136216961 0.0006011414881 0.017
0.00416986299 0.0006011414881 0.017
0.004203509019 0.0006011414881 0.017
0.004237155047 0.0006011414881 0.017
0.004019577483 0.0005657802241 0.016
0.004051244334 0.0005657802241 0.016
0.004082911185 0.0005657802241 0.016
0.004114578035 0.0005657802241 0.016
0.004146244886 0.0005657802241 0.016
0.004177911736 0.0005657802241 0.016
0.004209578587 0.0005657802241 0.016
0.004241245437 0.0005657802241 0.016
0.004272912288 0.0005657802241 0.016
0.004304579139 0.0005657802241 0.016
0.004336245989 0.0005657802241 0.016
0.00436791284 0.0005657802241 0.016
0.00439957969 0.0005657802241 0.016
0.004431246541 0.0005657802241 0.016
0.004462913392 0.0005657802241 0.016
0.004494580242 0.0005657802241 0.016
0.004243356649 0.0005304189601 0.015
0.0039881747 0.0004950576961 0.014
0.004589580794 0.0005657802241 0.016
0.004332419667 0.0005304189601 0.015
0.004362107339 0.0005304189601 0.015
0.004684581346 0.0005657802241 0.016
0.0003086197594 3.536126401e-05 0.001
-0.001793531516 0.0001120201003 0.003
-0.007150375925 0.000448080401 0.012
-0.007720511269 0.0004854204345 0.013
-0.007102875649 0.000448080401 0.012
-0.007669052637 0.0004854204345 0.013
-0.008231271269 0.0005227604679 0.014
-0.008203562774 0.0005227604679 0.014
-0.00817585428 0.0005227604679 0.014
-0.008148145786 0.0005227604679 0.014
-0.008120437292 0.0005227604679 0.014
-0.008092728797 0.0005227604679 0.014
-0.008065020303 0.0005227604679 0.014
-0.008037311809 0.0005227604679 0.014
-0.008009603315 0.0005227604679 0.014
-0.00798189482 0.0005227604679 0.014
-0.007954186326 0.0005227604679 0.014
-0.00849265482 0.0005601005013 0.015
-0.008462967147 0.0005601005013 0.015
-0.008433279475 0.0005601005013 0.015
-0.008403591802 0.0005601005013 0.015
-0.00837390413 0.0005601005013 0.015
-0.008344216458 0.0005601005013 0.015
-0.008314528785 0.0005601005013 0.015
-0.008284841113 0.0005601005013 0.015
-0.00825515344 0.0005601005013 0.015
-0.008225465768 0.0005601005013 0.015
-0.008195778096 0.0005601005013 0.015
-0.008166090423 0.0005601005013 0.015
-0.008136402751 0.0005601005013 0.015
-0.00864716275 0.0005974405347 0.016
-0.007538558912 0.0005227604679 0.014
-0.008583829049 0.0005974405347 0.016
-0.006948631786 0.0004854204345 0.013
-0.007987964389 0.0005601005013 0.015
-0.007427724935 0.0005227604679 0.014
-0.00370000822 0.0002613802339 0.007
-0.006845714522 0.0004854204345 0.013
-0.008918442192 0.0006347805681 0.017
-0.008362161095 0.0005974405347 0.016
-0.008330494244 0.0005974405347 0.016
-0.008298827394 0.0005974405347 0.016
-0.008783858077 0.0006347805681 0.017
-0.008235493693 0.0005974405347 0.016
-0.005127391776 0.0003734003342 0.01
-0.001532279998 0.0001120201003 0.003
-0.001017561643 7.468006684e-05 0.002
-0.00201928986 0.0001493601337 0.004
-0.0005028432868 3.734003342e-05 0.001
-0.0004988849305 3.734003342e-05 0.001
-0.0004949265742 3.734003342e-05 0.001
-0.000985894792 7.468006684e-05 0.002
-0.001940122733 0.0001493601337 0.004
-0.0009661030104 7.468006684e-05 0.002
-0.0009383945161 7.468006684e-05 0.002
-0.0004672180799 3.734003342e-05 0.001
-0.001389779171 0.0001120201003 0.003
-0.0004612805454 3.734003342e-05 0.001
-0.0004118010914 3.734003342e-05 0.001
-0.00163137094 0.0001493601337 0.004
-0.001211653136 0.0001120201003 0.003
-0.0003504465684 3.734003342e-05 0.001
-0.0003425298557 3.734003342e-05 0.001
-0.0003346131431 3.734003342e-05 0.001
-0.0003286756086 3.734003342e-05 0.001
-0.0003266964304 3.734003342e-05 0.001
-0.0005108920333 7.468006684e-05 0.002
-0.0004990169643 7.468006684e-05 0.002
-0.0004871418953 7.468006684e-05 0.002
-0.0002396125913 3.734003342e-05 0.001
-0.0002297167005 3.734003342e-05 0.001
-0.0002277375224 3.734003342e-05 0.001
-0.0004515166884 7.468006684e-05 0.002
-0.004475583321 0.0007468006684 0.02
-0.0004435999758 7.468006684e-05 0.002
-0.0004317249068 7.468006684e-05 0.002
-0.0008476163883 0.0001493601337 0.004
-0.0001921123155 3.734003342e-05 0.001
-0.0001802372465 3.734003342e-05 0.001
-0.0001782580683 3.734003342e-05 0.001
-0.0005169616015 0.0001120201003 0.003
-0.0003406827114 7.468006684e-05 0.002
-0.0007923314336 0.0001867001671 0.005
-0.0002971407918 7.468006684e-05 0.002
-0.0006933725255 0.0001867001671 0.005
-0.0002654739412 7.468006684e-05 0.002
-0.002745913642 0.0007841407018 0.021
-0.0001287786143 3.734003342e-05 0.001
-0.0001228410798 3.734003342e-05 0.001
-0.0001149243672 3.734003342e-05 0.001
-0.000225890378 7.468006684e-05 0.002
-0.000326960498 0.0001120201003 0.003
-0.0001070076545 3.734003342e-05 0.001
-0.0002060985964 7.468006684e-05 0.002
-0.0001942235274 7.468006684e-05 0.002
-0.001956221555 0.0007841407018 0.021
-0.001918749204 0.0008214807352 0.022
-0.0016194972 0.000709460635 0.019
-0.001665150332 0.0007468006684 0.02
-8.127833842e-05 3.734003342e-05 0.001
-7.929916026e-05 3.734003342e-05 0.001
-0.001958860902 0.0009708408689 0.026
-0.001320509264 0.0006721206016 0.018
-0.0014990314 0.0007841407018 0.021
-0.0004164196167 0.0002240402005 0.006
-0.001348481826 0.0007468006684 0.02
-0.001374343176 0.0007841407018 0.021
-0.001396246169 0.0008214807352 0.022
-0.001265620411 0.0008214807352 0.022
-0.0009443333794 0.0006347805681 0.017
-5.356984416e-05 3.734003342e-05 0.001
-0.001083403986 0.0007841407018 0.021
-4.961148783e-05 3.734003342e-05 0.001
-0.0001369593945 0.0001120201003 0.003
-0.0007861311603 0.0006721206016 0.018
-0.000875590279 0.0007841407018 0.021
-0.0009928899257 0.0009335008355 0.025
-0.0006037827018 0.0005974405347 0.016
-0.0008224165362 0.0008588207686 0.023
-0.0008444515636 0.0009335008355 0.025
-0.0001192788249 0.0001493601337 0.004
-0.0005289700331 0.000709460635 0.019
-0.0005689496977 0.0008214807352 0.022
-0.0005492899499 0.0008588207686 0.023
-0.0003984763082 0.0007468006684 0.02
-0.000358892745 0.0007468006684 0.02
-0.0003352746409 0.0007841407018 0.021
-0.0003636433041 0.0009708408689 0.026
-0.0002281349526 0.000709460635 0.019
-0.0002206143413 0.0008214807352 0.022
-0.000144877436 0.0006721206016 0.018
-0.0001335305022 0.0008214807352 0.022
-8.18078024e-05 0.0007468006684 0.02
-4.433545113e-05 0.0007841407018 0.021
-2.772709738e-06 0.0007841407018 0.021
3.879003165e-05 0.0007841407018 0.021
8.035277304e-05 0.0007841407018 0.021
0.0001219155144 0.0007841407018 0.021
0.0001634782558 0.0007841407018 0.021
0.0002050409972 0.0007841407018 0.021
0.0002466037386 0.0007841407018 0.021
0.00028816648 0.0007841407018 0.021
0.0003297292214 0.0007841407018 0.021
0.0003712919628 0.0007841407018 0.021
0.0004128547042 0.0007841407018 0.021
0.0004544174456 0.0007841407018 0.021
0.000495980187 0.0007841407018 0.021
0.0005375429283 0.0007841407018 0.021
0.0005791056697 0.0007841407018 0.021
0.0005911127725 0.0007468006684 0.02
0.0006306963357 0.0007468006684 0.02
0.000670279899 0.0007468006684 0.02
0.0007098634622 0.0007468006684 0.02
0.0007494470254 0.0007468006684 0.02
0.0007890305887 0.0007468006684 0.02
0.0008286141519 0.0007468006684 0.02
0.0008681977151 0.0007468006684 0.02
0.0009077812783 0.0007468006684 0.02
0.0009473648416 0.0007468006684 0.02
0.0009869484048 0.0007468006684 0.02
0.001026531968 0.0007468006684 0.02
0.001066115531 0.0007468006684 0.02
0.001105699094 0.0007468006684 0.02
0.001145282658 0.0007468006684 0.02
0.001184866221 0.0007468006684 0.02
0.001224449784 0.0007468006684 0.02
0.001264033347 0.0007468006684 0.02
0.001303616911 0.0007468006684 0.02
0.001343200474 0.0007468006684 0.02
0.001382784037 0.0007468006684 0.02
0.0014223676 0.0007468006684 0.02
0.001461951164 0.0007468006684 0.02
0.001501534727 0.0007468006684 0.02
0.00154111829 0.0007468006684 0.02
0.001580701853 0.0007468006684 0.02
0.001620285416 0.0007468006684 0.02
0.00165986898 0.0007468006684 0.02
0.001699452543 0.0007468006684 0.02
0.001739036106 0.0007468006684 0.02
0.001778619669 0.0007468006684 0.02
0.001818203233 0.0007468006684 0.02
0.001857786796 0.0007468006684 0.02
0.001897370359 0.0007468006684 0.02
0.001936953922 0.0007468006684 0.02
0.001976537486 0.0007468006684 0.02
0.002016121049 0.0007468006684 0.02
0.002055704612 0.0007468006684 0.02
0.002095288175 0.0007468006684 0.02
0.002134871738 0.0007468006684 0.02
0.002065732537 0.000709460635 0.019
0.002103336922 0.000709460635 0.019
0.002140941307 0.000709460635 0.019
0.002178545692 0.000709460635 0.019
0.002216150077 0.000709460635 0.019
0.002253754462 0.000709460635 0.019
0.002291358847 0.000709460635 0.019
0.002328963232 0.000709460635 0.019
0.002366567617 0.000709460635 0.019
0.002404172002 0.000709460635 0.019
0.002441776387 0.000709460635 0.019
0.002479380772 0.000709460635 0.019
0.002516985157 0.000709460635 0.019
0.002554589543 0.000709460635 0.019
0.002592193928 0.000709460635 0.019
0.002629798313 0.000709460635 0.019
0.002667402698 0.000709460635 0.019
0.002705007083 0.000709460635 0.019
0.002742611468 0.000709460635 0.019
0.002780215853 0.000709460635 0.019
0.002817820238 0.000709460635 0.019
0.002855424623 0.000709460635 0.019
0.002893029008 0.000709460635 0.019
0.002930633393 0.000709460635 0.019
0.002968237778 0.000709460635 0.019
0.003005842163 0.000709460635 0.019
0.003043446548 0.000709460635 0.019
0.003081050933 0.000709460635 0.019
0.003118655319 0.000709460635 0.019
0.003156259704 0.000709460635 0.019
0.003193864089 0.000709460635 0.019
0.003231468474 0.000709460635 0.019
0.003097016393 0.0006721206016 0.018
0.003132641599 0.0006721206016 0.018
0.003168266806 0.0006721206016 0.018
0.003203892013 0.0006721206016 0.018
0.00323951722 0.0006721206016 0.018
0.003275142427 0.0006721206016 0.018
0.003310767634 0.0006721206016 0.018
0.003346392841 0.0006721206016 0.018
0.003382018048 0.0006721206016 0.018
0.003417643255 0.0006721206016 0.018
0.003453268462 0.0006721206016 0.018
0.003488893669 0.0006721206016 0.018
0.003524518875 0.0006721206016 0.018
0.003560144082 0.0006721206016 0.018
0.003595769289 0.0006721206016 0.018
0.003631394496 0.0006721206016 0.018
0.003667019703 0.0006721206016 0.018
0.00370264491 0.0006721206016 0.018
0.003738270117 0.0006721206016 0.018
0.003773895324 0.0006721206016 0.018
0.003597880501 0.0006347805681 0.017
0.00363152653 0.0006347805681 0.017
0.003665172559 0.0006347805681 0.017
0.003698818587 0.0006347805681 0.017
0.003952021358 0.0006721206016 0.018
0.003766110645 0.0006347805681 0.017
0.003799756674 0.0006347805681 0.017
0.003833402702 0.0006347805681 0.017
0.003867048731 0.0006347805681 0.017
0.00390069476 0.0006347805681 0.017
0.003934340789 0.0006347805681 0.017
0.003967986817 0.0006347805681 0.017
0.004001632846 0.0006347805681 0.017
0.004035278875 0.0006347805681 0.017
0.004068924904 0.0006347805681 0.017
0.004102570932 0.0006347805681 0.017
0.003892910081 0.0005974405347 0.016
0.003924576932 0.0005974405347 0.016
0.003956243782 0.0005974405347 0.016
0.003987910633 0.0005974405347 0.016
0.004019577483 0.0005974405347 0.016
0.004051244334 0.0005974405347 0.016
0.004082911185 0.0005974405347 0.016
0.004114578035 0.0005974405347 0.016
0.004146244886 0.0005974405347 0.016
0.004177911736 0.0005974405347 0.016
0.004209578587 0.0005974405347 0.016
0.004241245437 0.0005974405347 0.016
0.004272912288 0.0005974405347 0.016
0.004304579139 0.0005974405347 0.016
0.004336245989 0.0005974405347 0.016
0.00436791284 0.0005974405347 0.016
0.00439957969 0.0005974405347 0.016
0.004154293632 0.0005601005013 0.015
0.004183981305 0.0005601005013 0.015
0.004213668977 0.0005601005013 0.015
0.004243356649 0.0005601005013 0.015
0.0039881747 0.0005227604679 0.014
0.004015883195 0.0005227604679 0.014
0.004043591689 0.0005227604679 0.014
0.004943721651 0.0006347805681 0.017
0.003806222343 0.0004854204345 0.013
0.0002967446904 3.734003342e-05 0.001
0.0002987238686 3.734003342e-05 0.001
0.0003007030467 3.734003342e-05 0.001
0.0003026822249 3.734003342e-05 0.001
0.0003046614031 3.734003342e-05 0.001
-0.001199646033 7.863760566e-05 0.002
-0.008342105246 0.0005504632397 0.014
-0.008314396751 0.0005504632397 0.014
-0.007102875649 0.000471825634 0.012
-0.008258979763 0.0005504632397 0.014
-0.008231271269 0.0005504632397 0.014
-0.008203562774 0.0005504632397 0.014
-0.00817585428 0.0005504632397 0.014
-0.008148145786 0.0005504632397 0.014
-0.008120437292 0.0005504632397 0.014
-0.008092728797 0.0005504632397 0.014
-0.008065020303 0.0005504632397 0.014
-0.008037311809 0.0005504632397 0.014
-0.008009603315 0.0005504632397 0.014
-0.00798189482 0.0005504632397 0.014
-0.007954186326 0.0005504632397 0.014
-0.007926477832 0.0005504632397 0.014
-0.007898769338 0.0005504632397 0.014
-0.008433279475 0.0005897820425 0.015
-0.008403591802 0.0005897820425 0.015
-0.00837390413 0.0005897820425 0.015
-0.008344216458 0.0005897820425 0.015
-0.008314528785 0.0005897820425 0.015
-0.008284841113 0.0005897820425 0.015
-0.00825515344 0.0005897820425 0.015
-0.008225465768 0.0005897820425 0.015
-0.008195778096 0.0005897820425 0.015
-0.008166090423 0.0005897820425 0.015
-0.008136402751 0.0005897820425 0.015
-0.007566267406 0.0005504632397 0.014
-0.007538558912 0.0005504632397 0.014
-0.008583829049 0.0006291008453 0.016
-0.007483141924 0.0005504632397 0.014
-0.009585557266 0.000707738451 0.018
-0.009549932059 0.000707738451 0.018
-0.005285726029 0.0003931880283 0.01
-0.009478681646 0.000707738451 0.018
-0.008393827945 0.0006291008453 0.016
-0.008884796163 0.0006684196482 0.017
-0.008330494244 0.0006291008453 0.016
-0.007780150682 0.0005897820425 0.015
-0.008267160543 0.0006291008453 0.016
-0.009264930404 0.000707738451 0.018
-0.00871656602 0.0006684196482 0.017
-0.007150639992 0.0005504632397 0.014
-0.008140493141 0.0006291008453 0.016
-0.00962923122 0.0007470572538 0.019
-0.00706751451 0.0005504632397 0.014
-0.007039806015 0.0005504632397 0.014
-0.008514689847 0.0006684196482 0.017
-0.008979928749 0.000707738451 0.018
-0.009403604909 0.0007470572538 0.019
-0.009819364357 0.0007863760566 0.02
-0.007334835595 0.0005897820425 0.015
-0.0004870098615 3.931880283e-05 0.001
-0.0009621446541 7.863760566e-05 0.002
-0.0004790931489 3.931880283e-05 0.001
-0.009027561059 0.0007470572538 0.019
-0.0004711764362 3.931880283e-05 0.001
-0.007976353387 0.0006684196482 0.017
-0.0004652389017 3.931880283e-05 0.001
-0.0004533638328 3.931880283e-05 0.001
-0.0008988109529 7.863760566e-05 0.002
-0.0004137802695 3.931880283e-05 0.001
-0.0008038104012 7.863760566e-05 0.002
-0.0003445090339 3.931880283e-05 0.001
-0.0003365923213 3.931880283e-05 0.001
-0.0003286756086 3.931880283e-05 0.001
-0.006494345046 0.0007863760566 0.02
-0.0003227380741 3.931880283e-05 0.001
-0.0002554460166 3.931880283e-05 0.001
-0.0002455501258 3.931880283e-05 0.001
-0.000706962705 0.0001179564085 0.003
-0.0004594334011 7.863760566e-05 0.002
-0.000223779166 3.931880283e-05 0.001
-0.0006535248947 0.0001179564085 0.003
-0.0002099249189 3.931880283e-05 0.001
-0.0001901331373 3.931880283e-05 0.001
-0.0003763079183 7.863760566e-05 0.002
-0.0003525577803 7.863760566e-05 0.002
-0.0005110240671 0.0001179564085 0.003
-0.0003288076424 7.863760566e-05 0.002
-0.0001545079304 3.931880283e-05 0.001
-0.0003050575045 7.863760566e-05 0.002
-0.0001465912177 3.931880283e-05 0.001
-0.0001366953269 3.931880283e-05 0.001
-0.0001347161488 3.931880283e-05 0.001
-0.0001287786143 3.931880283e-05 0.001
-0.0001208619016 3.931880283e-05 0.001
-0.0001188827235 3.931880283e-05 0.001
-0.0001169035453 3.931880283e-05 0.001
-0.000112945189 3.931880283e-05 0.001
-0.0001050284764 3.931880283e-05 0.001
-0.0001030492982 3.931880283e-05 0.001
-9.909094187e-05 3.931880283e-05 0.001
-0.0002794602222 0.0001179564085 0.003
-0.0001704733895 7.863760566e-05 0.002
-0.0003092799284 0.0001572752113 0.004
-0.0002934465031 0.0001572752113 0.004
-6.742409129e-05 3.931880283e-05 0.001
-0.0001308898263 7.863760566e-05 0.002
-6.14865568e-05 3.931880283e-05 0.001
-0.0001190147573 7.863760566e-05 0.002
-5.554902232e-05 3.931880283e-05 0.001
-5.356984416e-05 3.931880283e-05 0.001
-4.961148783e-05 3.931880283e-05 0.001
-4.367395335e-05 3.931880283e-05 0.001
-0.0008737431346 0.0008650136623 0.022
-6.359776876e-05 7.863760566e-05 0.002
-0.0006960132014 0.0009829700708 0.025
-0.0005172269979 0.0007863760566 0.02
-1.992381541e-05 3.931880283e-05 0.001
-0.0003768373823 0.0008256948595 0.021
-0.0003193091818 0.0007863760566 0.02
-0.0002937118995 0.0008256948595 0.021
-2.005584921e-05 7.863760566e-05 0.002
-0.0001153217973 0.0007470572538 0.019
-8.998858264e-05 0.0008650136623 0.022
-4.433545113e-05 0.0008256948595 0.021
-2.772709738e-06 0.0008256948595 0.021
3.879003165e-05 0.0008256948595 0.021
8.035277304e-05 0.0008256948595 0.021
0.0001219155144 0.0008256948595 0.021
0.0001634782558 0.0008256948595 0.021
0.0002050409972 0.0008256948595 0.021
0.0002466037386 0.0008256948595 0.021
0.0002744442667 0.0007863760566 0.02
0.0003140278299 0.0007863760566 0.02
0.0003536113931 0.0007863760566 0.02
0.0003931949564 0.0007863760566 0.02
0.0004327785196 0.0007863760566 0.02
0.0004723620828 0.0007863760566 0.02
0.000511945646 0.0007863760566 0.02
0.0005515292093 0.0007863760566 0.02
0.0005911127725 0.0007863760566 0.02
0.0006306963357 0.0007863760566 0.02
0.000670279899 0.0007863760566 0.02
0.0007098634622 0.0007863760566 0.02
0.0007494470254 0.0007863760566 0.02
0.0007890305887 0.0007863760566 0.02
0.0008286141519 0.0007863760566 0.02
0.0008681977151 0.0007863760566 0.02
0.0009077812783 0.0007863760566 0.02
0.0009473648416 0.0007863760566 0.02
0.0009869484048 0.0007863760566 0.02
0.001026531968 0.0007863760566 0.02
0.001066115531 0.0007863760566 0.02
0.001105699094 0.0007863760566 0.02
0.001145282658 0.0007863760566 0.02
0.001184866221 0.0007863760566 0.02
0.001224449784 0.0007863760566 0.02
0.001264033347 0.0007863760566 0.02
0.001303616911 0.0007863760566 0.02
0.001343200474 0.0007863760566 0.02
0.001382784037 0.0007863760566 0.02
0.0014223676 0.0007863760566 0.02
0.001461951164 0.0007863760566 0.02
0.001501534727 0.0007863760566 0.02
0.00154111829 0.0007863760566 0.02
0.001580701853 0.0007863760566 0.02
0.001620285416 0.0007863760566 0.02
0.00165986898 0.0007863760566 0.02
0.001699452543 0.0007863760566 0.02
0.001739036106 0.0007863760566 0.02
0.001778619669 0.0007863760566 0.02
0.001818203233 0.0007863760566 0.02
0.001764897456 0.0007470572538 0.019
0.001802501841 0.0007470572538 0.019
0.001840106226 0.0007470572538 0.019
0.001877710611 0.0007470572538 0.019
0.001915314996 0.0007470572538 0.019
0.001952919381 0.0007470572538 0.019
0.001990523766 0.0007470572538 0.019
0.002028128152 0.0007470572538 0.019
0.002065732537 0.0007470572538 0.019
0.002103336922 0.0007470572538 0.019
0.002140941307 0.0007470572538 0.019
0.002178545692 0.0007470572538 0.019
0.002216150077 0.0007470572538 0.019
0.002253754462 0.0007470572538 0.019
0.002170761013 0.000707738451 0.018
0.00220638622 0.000707738451 0.018
0.002366567617 0.0007470572538 0.019
0.002404172002 0.0007470572538 0.019
0.002441776387 0.0007470572538 0.019
0.002479380772 0.0007470572538 0.019
0.002516985157 0.0007470572538 0.019
0.002554589543 0.0007470572538 0.019
0.002592193928 0.0007470572538 0.019
0.002629798313 0.0007470572538 0.019
0.002667402698 0.0007470572538 0.019
0.002705007083 0.0007470572538 0.019
0.002742611468 0.0007470572538 0.019
0.002780215853 0.0007470572538 0.019
0.002817820238 0.0007470572538 0.019
0.002855424623 0.0007470572538 0.019
0.002893029008 0.0007470572538 0.019
0.002930633393 0.0007470572538 0.019
0.002968237778 0.0007470572538 0.019
0.003005842163 0.0007470572538 0.019
0.003043446548 0.0007470572538 0.019
0.003081050933 0.0007470572538 0.019
0.003118655319 0.0007470572538 0.019
0.003156259704 0.0007470572538 0.019
0.003193864089 0.0007470572538 0.019
0.003231468474 0.0007470572538 0.019
0.003097016393 0.000707738451 0.018
0.003132641599 0.000707738451 0.018
0.003168266806 0.000707738451 0.018
0.003203892013 0.000707738451 0.018
0.00323951722 0.000707738451 0.018
0.003275142427 0.000707738451 0.018
0.003310767634 0.000707738451 0.018
0.003346392841 0.000707738451 0.018
0.003382018048 0.000707738451 0.018
0.003417643255 0.000707738451 0.018
0.003453268462 0.000707738451 0.018
0.003488893669 0.000707738451 0.018
0.003524518875 0.000707738451 0.018
0.003560144082 0.000707738451 0.018
0.003595769289 0.000707738451 0.018
0.003631394496 0.000707738451 0.018
0.003463296386 0.0006684196482 0.017
0.003496942415 0.0006684196482 0.017
0.003530588444 0.0006684196482 0.017
0.003564234472 0.0006684196482 0.017
0.003597880501 0.0006684196482 0.017
0.00363152653 0.0006684196482 0.017
0.003665172559 0.0006684196482 0.017
0.003698818587 0.0006684196482 0.017
0.003732464616 0.0006684196482 0.017
0.003766110645 0.0006684196482 0.017
0.003799756674 0.0006684196482 0.017
0.003833402702 0.0006684196482 0.017
0.003867048731 0.0006684196482 0.017
0.00390069476 0.0006684196482 0.017
0.003934340789 0.0006684196482 0.017
0.003967986817 0.0006684196482 0.017
0.004001632846 0.0006684196482 0.017
0.004035278875 0.0006684196482 0.017
0.004068924904 0.0006684196482 0.017
0.00386124323 0.0006291008453 0.016
0.003892910081 0.0006291008453 0.016
0.003924576932 0.0006291008453 0.016
0.003708978546 0.0005897820425 0.015
0.003738666218 0.0005897820425 0.015
0.004019577483 0.0006291008453 0.016
0.004051244334 0.0006291008453 0.016
0.004082911185 0.0006291008453 0.016
0.004114578035 0.0006291008453 0.016
0.004146244886 0.0006291008453 0.016
0.004177911736 0.0006291008453 0.016
0.004209578587 0.0006291008453 0.016
0.004241245437 0.0006291008453 0.016
0.004272912288 0.0006291008453 0.016
0.004304579139 0.0006291008453 0.016
0.004336245989 0.0006291008453 0.016
0.004094918287 0.0005897820425 0.015
0.00412460596 0.0005897820425 0.015
0.004154293632 0.0005897820425 0.015
0.004183981305 0.0005897820425 0.015
0.004213668977 0.0005897820425 0.015
0.003960466206 0.0005504632397 0.014
0.004842783565 0.0006684196482 0.017
0.004589580794 0.0006291008453 0.016
0.003754763711 0.0005111444368 0.013
0.004071300183 0.0005504632397 0.014
