# .PCD v0.7 - Point Cloud Data file format
VERSION 0.7
FIELDS x y z
SIZE 4 4 4
TYPE F F F
COUNT 1 1 1
WIDTH 1291
HEIGHT 1
VIEWPOINT 0 0 0 1 0 0 0
POINTS 1291
DATA ascii
-0.003314995373 -0.003493923925 0.044
-0.003227911534 -0.003493923925 0.044
-0.003140827695 -0.003493923925 0.044
-0.003053743856 -0.003493923925 0.044
-0.002899235925 -0.003414516564 0.043
-0.002879576178 -0.003493923925 0.044
-0.002792492338 -0.003493923925 0.044
-0.002705408499 -0.003493923925 0.044
-0.00261832466 -0.003493923925 0.044
-0.002531240821 -0.003493923925 0.044
-0.002444156982 -0.003493923925 0.044
-0.002357073143 -0.003493923925 0.044
-0.002269989304 -0.003493923925 0.044
-0.002133293977 -0.003414516564 0.043
-0.002048189316 -0.003414516564 0.043
-0.001963084655 -0.003414516564 0.043
-0.001877979994 -0.003414516564 0.043
-0.001792875333 -0.003414516564 0.043
-0.001707770672 -0.003414516564 0.043
-0.001622666011 -0.003414516564 0.043
-0.00153756135 -0.003414516564 0.043
-0.001452456689 -0.003414516564 0.043
-0.001367352028 -0.003414516564 0.043
-0.001282247367 -0.003414516564 0.043
-0.001197142706 -0.003414516564 0.043
-0.001112038046 -0.003414516564 0.043
-0.001026933385 -0.003414516564 0.043
-0.0009418287237 -0.003414516564 0.043
-0.0008567240627 -0.003414516564 0.043
-0.0007536747645 -0.003335109202 0.042
-0.0006705492817 -0.003335109202 0.042
-0.000587423799 -0.003335109202 0.042
-0.0005042983162 -0.003335109202 0.042
-0.0004211728334 -0.003335109202 0.042
-0.0003380473506 -0.003335109202 0.042
-0.0002549218678 -0.003335109202 0.042
-0.000171796385 -0.003335109202 0.042
-8.867090226e-05 -0.003335109202 0.042
-5.545419475e-06 -0.003335109202 0.042
7.758006331e-05 -0.003335109202 0.042
0.0001568792236 -0.00325570184 0.041
0.0002380255282 -0.00325570184 0.041
0.0003191718328 -0.00325570184 0.041
0.0004003181374 -0.00325570184 0.041
0.000481464442 -0.00325570184 0.041
0.0005626107467 -0.00325570184 0.041
0.0006437570513 -0.00325570184 0.041
0.0007249033559 -0.00325570184 0.041
0.0008060496605 -0.00325570184 0.041
0.0008871959652 -0.00325570184 0.041
0.0009683422698 -0.00325570184 0.041
0.001049488574 -0.00325570184 0.041
0.001130634879 -0.00325570184 0.041
0.001182225545 -0.003176294478 0.04
0.001261392671 -0.003176294478 0.04
0.001340559798 -0.003176294478 0.04
0.001419726924 -0.003176294478 0.04
0.001498894051 -0.003176294478 0.04
0.001578061177 -0.003176294478 0.04
0.001657228304 -0.003176294478 0.04
0.00173639543 -0.003176294478 0.04
0.001815562557 -0.003176294478 0.04
0.001894729683 -0.003176294478 0.04
0.00197389681 -0.003176294478 0.04
0.002053063936 -0.003176294478 0.04
0.002078925286 -0.003096887116 0.039
0.002156113234 -0.003096887116 0.039
0.002233301183 -0.003096887116 0.039
0.002369732442 -0.003176294478 0.04
0.002448899568 -0.003176294478 0.04
0.002528066695 -0.003176294478 0.04
0.002607233821 -0.003176294478 0.04
0.002686400948 -0.003176294478 0.04
0.002765568074 -0.003176294478 0.04
0.002844735201 -0.003176294478 0.04
0.002923902327 -0.003176294478 0.04
0.003003069454 -0.003176294478 0.04
0.00308223658 -0.003176294478 0.04
0.003161403707 -0.003176294478 0.04
0.003240570833 -0.003176294478 0.04
0.003319737959 -0.003176294478 0.04
0.003398905086 -0.003176294478 0.04
0.003478072212 -0.003176294478 0.04
0.003557239339 -0.003176294478 0.04
0.003636406465 -0.003176294478 0.04
0.003622684252 -0.003096887116 0.039
0.0036998722 -0.003096887116 0.039
0.003777060149 -0.003096887116 0.039
0.003854248097 -0.003096887116 0.039
0.003931436045 -0.003096887116 0.039
0.004008623993 -0.003096887116 0.039
0.004085811942 -0.003096887116 0.039
0.00416299989 -0.003096887116 0.039
0.004240187838 -0.003096887116 0.039
0.004317375787 -0.003096887116 0.039
0.004281882613 -0.003017479754 0.038
0.004357091384 -0.003017479754 0.038
0.004432300154 -0.003017479754 0.038
0.004507508924 -0.003017479754 0.038
0.004582717694 -0.003017479754 0.038
0.004657926464 -0.003017479754 0.038
0.004608579044 -0.002938072392 0.037
0.004681808636 -0.002938072392 0.037
0.004755038228 -0.002938072392 0.037
0.00482826782 -0.002938072392 0.037
0.004901497412 -0.002938072392 0.037
0.004974727004 -0.002938072392 0.037
0.005047956596 -0.002938072392 0.037
0.005121186188 -0.002938072392 0.037
0.00519441578 -0.002938072392 0.037
0.005267645372 -0.002938072392 0.037
0.005340874964 -0.002938072392 0.037
0.005414104556 -0.002938072392 0.037
0.005339027819 -0.00285866503 0.036
0.005410278233 -0.00285866503 0.036
0.005481528647 -0.00285866503 0.036
0.005552779061 -0.00285866503 0.036
0.005624029475 -0.00285866503 0.036
0.005695279888 -0.00285866503 0.036
0.005766530302 -0.00285866503 0.036
0.005837780716 -0.00285866503 0.036
0.00590903113 -0.00285866503 0.036
0.005814162612 -0.002779257668 0.035
0.005883433848 -0.002779257668 0.035
0.005952705083 -0.002779257668 0.035
0.006021976319 -0.002779257668 0.035
0.006091247554 -0.002779257668 0.035
0.00616051879 -0.002779257668 0.035
0.006229790026 -0.002779257668 0.035
0.006299061261 -0.002779257668 0.035
0.006368332497 -0.002779257668 0.035
0.006437603733 -0.002779257668 0.035
0.006506874968 -0.002779257668 0.035
0.006388256313 -0.002699850306 0.034
0.00645554837 -0.002699850306 0.034
0.006522840427 -0.002699850306 0.034
0.006590132485 -0.002699850306 0.034
0.006657424542 -0.002699850306 0.034
0.0067247166 -0.002699850306 0.034
0.006792008657 -0.002699850306 0.034
0.006859300715 -0.002699850306 0.034
0.006926592772 -0.002699850306 0.034
0.00699388483 -0.002699850306 0.034
0.007061176887 -0.002699850306 0.034
0.007128468945 -0.002699850306 0.034
0.007195761002 -0.002699850306 0.034
0.00726305306 -0.002699850306 0.034
0.007330345117 -0.002699850306 0.034
0.007397637175 -0.002699850306 0.034
0.007464929232 -0.002699850306 0.034
0.00753222129 -0.002699850306 0.034
0.007599513347 -0.002699850306 0.034
0.007666805405 -0.002699850306 0.034
0.007734097462 -0.002699850306 0.034
0.007571936887 -0.002620442944 0.033
0.007637249766 -0.002620442944 0.033
0.007702562646 -0.002620442944 0.033
0.007767875525 -0.002620442944 0.033
0.007358449713 -0.00246162822 0.031
0.00765915276 -0.002541035582 0.032
0.007963814163 -0.002620442944 0.033
0.007542513282 -0.00246162822 0.031
0.007849153863 -0.002541035582 0.032
0.007912487564 -0.002541035582 0.032
0.007726576851 -0.00246162822 0.031
0.008039154967 -0.002541035582 0.032
0.007089677584 -0.002223406134 0.028
0.008165822369 -0.002541035582 0.032
0.007457672689 -0.002302813496 0.029
0.007515068855 -0.002302813496 0.029
0.0002611194835 -7.940736194e-05 0.001
0.001060311359 -0.0003176294478 0.004
0.0002710153743 -7.940736194e-05 0.001
0.0002749737306 -7.940736194e-05 0.001
0.0002868487996 -7.940736194e-05 0.001
0.001163228624 -0.0003176294478 0.004
0.0002947655123 -7.940736194e-05 0.001
0.0002967446904 -7.940736194e-05 0.001
-0.0006354482236 -7.742859253e-05 0.001
-0.01506075626 -0.001858286221 0.024
-0.01313659899 -0.001626000443 0.021
-0.01434218256 -0.001780857628 0.023
-0.01491825544 -0.001858286221 0.024
-0.01487075516 -0.001858286221 0.024
-0.01482325488 -0.001858286221 0.024
-0.01477575461 -0.001858286221 0.024
-0.01472825433 -0.001858286221 0.024
-0.01529245214 -0.001935714813 0.025
-0.01524297269 -0.001935714813 0.025
-0.01519349323 -0.001935714813 0.025
-0.01453825323 -0.001858286221 0.024
-0.01509453433 -0.001935714813 0.025
-0.01504505487 -0.001935714813 0.025
-0.01499557542 -0.001935714813 0.025
-0.0155439398 -0.002013143406 0.026
-0.01549248117 -0.002013143406 0.026
-0.01544102254 -0.002013143406 0.026
-0.01538956391 -0.002013143406 0.026
-0.01533810527 -0.002013143406 0.026
-0.01587459459 -0.002090571998 0.027
-0.01582115678 -0.002090571998 0.027
-0.01576771897 -0.002090571998 0.027
-0.01571428116 -0.002090571998 0.027
-0.01566084335 -0.002090571998 0.027
-0.01618545759 -0.002168000591 0.028
-0.01613004061 -0.002168000591 0.028
-0.01607462362 -0.002168000591 0.028
-0.01601920663 -0.002168000591 0.028
-0.01596378964 -0.002168000591 0.028
-0.01590837265 -0.002168000591 0.028
-0.01585295566 -0.002168000591 0.028
-0.01636173648 -0.002245429183 0.029
-0.01630434032 -0.002245429183 0.029
-0.01624694415 -0.002245429183 0.029
-0.01618954798 -0.002245429183 0.029
-0.01613215182 -0.002245429183 0.029
-0.01607475565 -0.002245429183 0.029
-0.01656968223 -0.002322857776 0.03
-0.01651030688 -0.002322857776 0.03
-0.01645093154 -0.002322857776 0.03
-0.01639155619 -0.002322857776 0.03
-0.01633218085 -0.002322857776 0.03
-0.0162728055 -0.002322857776 0.03
-0.01675387783 -0.002400286368 0.031
-0.01669252331 -0.002400286368 0.031
-0.01663116878 -0.002400286368 0.031
-0.01656981426 -0.002400286368 0.031
-0.01650845974 -0.002400286368 0.031
-0.01644710521 -0.002400286368 0.031
-0.01638575069 -0.002400286368 0.031
-0.01632439617 -0.002400286368 0.031
-0.01626304164 -0.002400286368 0.031
-0.01620168712 -0.002400286368 0.031
-0.0161403326 -0.002400286368 0.031
-0.01659765479 -0.002477714961 0.032
-0.01653432109 -0.002477714961 0.032
-0.01647098739 -0.002477714961 0.032
-0.01640765368 -0.002477714961 0.032
-0.01634431998 -0.002477714961 0.032
-0.01628098628 -0.002477714961 0.032
-0.01621765258 -0.002477714961 0.032
-0.01665914134 -0.002555143553 0.033
-0.01659382846 -0.002555143553 0.033
-0.01652851559 -0.002555143553 0.033
-0.01646320271 -0.002555143553 0.033
-0.01639788983 -0.002555143553 0.033
-0.01633257695 -0.002555143553 0.033
-0.01626726407 -0.002555143553 0.033
-0.01620195119 -0.002555143553 0.033
-0.01613663831 -0.002555143553 0.033
-0.01607132543 -0.002555143553 0.033
-0.01600601255 -0.002555143553 0.033
-0.01642375118 -0.002632572146 0.034
-0.01635645912 -0.002632572146 0.034
-0.01628916706 -0.002632572146 0.034
-0.016221875 -0.002632572146 0.034
-0.01615458295 -0.002632572146 0.034
-0.01608729089 -0.002632572146 0.034
-0.01601999883 -0.002632572146 0.034
-0.01595270677 -0.002632572146 0.034
-0.01588541472 -0.002632572146 0.034
-0.01581812266 -0.002632572146 0.034
-0.0157508306 -0.002632572146 0.034
-0.01614481909 -0.002710000739 0.035
-0.01607554785 -0.002710000739 0.035
-0.01600627662 -0.002710000739 0.035
-0.01593700538 -0.002710000739 0.035
-0.01586773415 -0.002710000739 0.035
-0.01579846291 -0.002710000739 0.035
-0.01572919168 -0.002710000739 0.035
-0.01565992044 -0.002710000739 0.035
-0.01603609632 -0.002787429331 0.036
-0.01596484591 -0.002787429331 0.036
-0.0158935955 -0.002787429331 0.036
-0.01582234508 -0.002787429331 0.036
-0.01575109467 -0.002787429331 0.036
-0.01567984426 -0.002787429331 0.036
-0.01560859384 -0.002787429331 0.036
-0.01553734343 -0.002787429331 0.036
-0.01546609301 -0.002787429331 0.036
-0.0153948426 -0.002787429331 0.036
-0.01532359219 -0.002787429331 0.036
-0.01525234177 -0.002787429331 0.036
-0.01518109136 -0.002787429331 0.036
-0.01510984095 -0.002787429331 0.036
-0.01503859053 -0.002787429331 0.036
-0.01496734012 -0.002787429331 0.036
-0.0148960897 -0.002787429331 0.036
-0.01482483929 -0.002787429331 0.036
-0.01475358888 -0.002787429331 0.036
-0.01468233846 -0.002787429331 0.036
-0.01461108805 -0.002787429331 0.036
-0.01453983763 -0.002787429331 0.036
-0.01446858722 -0.002787429331 0.036
-0.01439733681 -0.002787429331 0.036
-0.01472403324 -0.002864857924 0.037
-0.01465080365 -0.002864857924 0.037
-0.01457757405 -0.002864857924 0.037
-0.01450434446 -0.002864857924 0.037
-0.01443111487 -0.002864857924 0.037
-0.01435788528 -0.002864857924 0.037
-0.01428465569 -0.002864857924 0.037
-0.01421142609 -0.002864857924 0.037
-0.01452030992 -0.002942286516 0.038
-0.01444510115 -0.002942286516 0.038
-0.01436989238 -0.002942286516 0.038
-0.01429468361 -0.002942286516 0.038
-0.01421947484 -0.002942286516 0.038
-0.01414426607 -0.002942286516 0.038
-0.0140690573 -0.002942286516 0.038
-0.01399384853 -0.002942286516 0.038
-0.01391863976 -0.002942286516 0.038
-0.01384343099 -0.002942286516 0.038
-0.01376822222 -0.002942286516 0.038
-0.01369301345 -0.002942286516 0.038
-0.01361780468 -0.002942286516 0.038
-0.01354259591 -0.002942286516 0.038
-0.01346738714 -0.002942286516 0.038
-0.01339217837 -0.002942286516 0.038
-0.0133169696 -0.002942286516 0.038
-0.01324176083 -0.002942286516 0.038
-0.01316655206 -0.002942286516 0.038
-0.01309134329 -0.002942286516 0.038
-0.01301613452 -0.002942286516 0.038
-0.01328147643 -0.003019715109 0.039
-0.01320428848 -0.003019715109 0.039
-0.01312710053 -0.003019715109 0.039
-0.01304991258 -0.003019715109 0.039
-0.01297272463 -0.003019715109 0.039
-0.01289553668 -0.003019715109 0.039
-0.01281834874 -0.003019715109 0.039
-0.01274116079 -0.003019715109 0.039
-0.01266397284 -0.003019715109 0.039
-0.01258678489 -0.003019715109 0.039
-0.01250959694 -0.003019715109 0.039
-0.01243240899 -0.003019715109 0.039
-0.01235522105 -0.003019715109 0.039
-0.01259285446 -0.003097143701 0.04
-0.01251368733 -0.003097143701 0.04
-0.01243452021 -0.003097143701 0.04
-0.01235535308 -0.003097143701 0.04
-0.01227618595 -0.003097143701 0.04
-0.01219701883 -0.003097143701 0.04
-0.0121178517 -0.003097143701 0.04
-0.01203868457 -0.003097143701 0.04
-0.01195951745 -0.003097143701 0.04
-0.01188035032 -0.003097143701 0.04
-0.01180118319 -0.003097143701 0.04
-0.01172201607 -0.003097143701 0.04
-0.01164284894 -0.003097143701 0.04
-0.01156368181 -0.003097143701 0.04
-0.01148451469 -0.003097143701 0.04
-0.01140534756 -0.003097143701 0.04
-0.01132618044 -0.003097143701 0.04
-0.01124701331 -0.003097143701 0.04
-0.01116784618 -0.003097143701 0.04
-0.01108867906 -0.003097143701 0.04
-0.01100951193 -0.003097143701 0.04
-0.01120360342 -0.003174572294 0.041
-0.01112245712 -0.003174572294 0.041
-0.01104131081 -0.003174572294 0.041
-0.01096016451 -0.003174572294 0.041
-0.0108790182 -0.003174572294 0.041
-0.0107978719 -0.003174572294 0.041
-0.0107167256 -0.003174572294 0.041
-0.01063557929 -0.003174572294 0.041
-0.01055443299 -0.003174572294 0.041
-0.01047328668 -0.003174572294 0.041
-0.01039214038 -0.003174572294 0.041
-0.01031099407 -0.003174572294 0.041
-0.01022984777 -0.003174572294 0.041
-0.01014870146 -0.003174572294 0.041
-0.01006755516 -0.003174572294 0.041
-0.009986408854 -0.003174572294 0.041
-0.009905262549 -0.003174572294 0.041
-0.009824116245 -0.003174572294 0.041
-0.00974296994 -0.003174572294 0.041
-0.009661823636 -0.003174572294 0.041
-0.009580677331 -0.003174572294 0.041
-0.009499531026 -0.003174572294 0.041
-0.009418384722 -0.003174572294 0.041
-0.009337238417 -0.003174572294 0.041
-0.009481850457 -0.003252000886 0.042
-0.009174945808 -0.003174572294 0.041
-0.009093799503 -0.003174572294 0.041
-0.009012653199 -0.003174572294 0.041
-0.008931506894 -0.003174572294 0.041
-0.009066223043 -0.003252000886 0.042
-0.00898309756 -0.003252000886 0.042
-0.008899972077 -0.003252000886 0.042
-0.008816846594 -0.003252000886 0.042
-0.008733721112 -0.003252000886 0.042
-0.008650595629 -0.003252000886 0.042
-0.008567470146 -0.003252000886 0.042
-0.008484344663 -0.003252000886 0.042
-0.008401219181 -0.003252000886 0.042
-0.008318093698 -0.003252000886 0.042
-0.008234968215 -0.003252000886 0.042
-0.008151842732 -0.003252000886 0.042
-0.008068717249 -0.003252000886 0.042
-0.007985591767 -0.003252000886 0.042
-0.007902466284 -0.003252000886 0.042
-0.007819340801 -0.003252000886 0.042
-0.007736215318 -0.003252000886 0.042
-0.007653089835 -0.003252000886 0.042
-0.007569964353 -0.003252000886 0.042
-0.00748683887 -0.003252000886 0.042
-0.007403713387 -0.003252000886 0.042
-0.007320587904 -0.003252000886 0.042
-0.007237462422 -0.003252000886 0.042
-0.007324678294 -0.003329429479 0.043
-0.007239573634 -0.003329429479 0.043
-0.007154468973 -0.003329429479 0.043
-0.007069364312 -0.003329429479 0.043
-0.006984259651 -0.003329429479 0.043
-0.00689915499 -0.003329429479 0.043
-0.006814050329 -0.003329429479 0.043
-0.006728945668 -0.003329429479 0.043
-0.006643841007 -0.003329429479 0.043
-0.006711265098 -0.003406858071 0.044
-0.006624181259 -0.003406858071 0.044
-0.006388527024 -0.003329429479 0.043
-0.006303422363 -0.003329429479 0.043
-0.006218317702 -0.003329429479 0.043
-0.006133213041 -0.003329429479 0.043
-0.00604810838 -0.003329429479 0.043
-0.005963003719 -0.003329429479 0.043
-0.005877899058 -0.003329429479 0.043
-0.005792794397 -0.003329429479 0.043
-0.005707689737 -0.003329429479 0.043
-0.005622585076 -0.003329429479 0.043
-0.005537480415 -0.003329429479 0.043
-0.005452375754 -0.003329429479 0.043
-0.005367271093 -0.003329429479 0.043
-0.005282166432 -0.003329429479 0.043
-0.005197061771 -0.003329429479 0.043
-0.00511195711 -0.003329429479 0.043
-0.005026852449 -0.003329429479 0.043
-0.004941747788 -0.003329429479 0.043
-0.004856643127 -0.003329429479 0.043
-0.004771538466 -0.003329429479 0.043
-0.004686433805 -0.003329429479 0.043
-0.004601329144 -0.003329429479 0.043
-0.004516224483 -0.003329429479 0.043
-0.004431119822 -0.003329429479 0.043
-0.004346015161 -0.003329429479 0.043
-0.0042609105 -0.003329429479 0.043
-0.004272917603 -0.003406858071 0.044
-0.004185833764 -0.003406858071 0.044
-0.004098749925 -0.003406858071 0.044
-0.004011666086 -0.003406858071 0.044
-0.003835387196 -0.003329429479 0.043
-0.003750282535 -0.003329429479 0.043
-0.003750414569 -0.003406858071 0.044
-0.00366333073 -0.003406858071 0.044
-0.00357624689 -0.003406858071 0.044
-0.003489163051 -0.003406858071 0.044
-0.003402079212 -0.003406858071 0.044
-0.003314995373 -0.003406858071 0.044
-0.003227911534 -0.003406858071 0.044
-0.003069445247 -0.003329429479 0.043
-0.002984340586 -0.003329429479 0.043
-0.002899235925 -0.003329429479 0.043
-0.002814131264 -0.003329429479 0.043
-0.002729026603 -0.003329429479 0.043
-0.002643921943 -0.003329429479 0.043
-0.002558817282 -0.003329429479 0.043
-0.002473712621 -0.003329429479 0.043
-0.00238860796 -0.003329429479 0.043
-0.002303503299 -0.003329429479 0.043
-0.002218398638 -0.003329429479 0.043
-0.002133293977 -0.003329429479 0.043
-0.002000557006 -0.003252000886 0.042
-0.001917431523 -0.003252000886 0.042
-0.001834306041 -0.003252000886 0.042
-0.001751180558 -0.003252000886 0.042
-0.001668055075 -0.003252000886 0.042
-0.001584929592 -0.003252000886 0.042
-0.00150180411 -0.003252000886 0.042
-0.001418678627 -0.003252000886 0.042
-0.001335553144 -0.003252000886 0.042
-0.001252427661 -0.003252000886 0.042
-0.001169302178 -0.003252000886 0.042
-0.001086176696 -0.003252000886 0.042
-0.001003051213 -0.003252000886 0.042
-0.0009199257301 -0.003252000886 0.042
-0.0008368002473 -0.003252000886 0.042
-0.0007357301273 -0.003174572294 0.041
-0.0006545838226 -0.003174572294 0.041
-0.000573437518 -0.003174572294 0.041
-0.0004922912134 -0.003174572294 0.041
-0.0004111449088 -0.003174572294 0.041
-0.0003299986042 -0.003174572294 0.041
-0.0002488522995 -0.003174572294 0.041
-0.0001677059949 -0.003174572294 0.041
-8.65596903e-05 -0.003174572294 0.041
-5.413385678e-06 -0.003174572294 0.041
7.573291894e-05 -0.003174572294 0.041
0.0001568792236 -0.003174572294 0.041
0.0002380255282 -0.003174572294 0.041
0.000311387154 -0.003097143701 0.04
0.0003905542804 -0.003097143701 0.04
0.0004697214069 -0.003097143701 0.04
0.0005488885333 -0.003097143701 0.04
0.0006280556598 -0.003097143701 0.04
0.0007072227863 -0.003097143701 0.04
0.0007863899127 -0.003097143701 0.04
0.0008655570392 -0.003097143701 0.04
0.0009447241656 -0.003097143701 0.04
0.001023891292 -0.003097143701 0.04
0.001130634879 -0.003174572294 0.041
0.001182225545 -0.003097143701 0.04
0.001261392671 -0.003097143701 0.04
0.001340559798 -0.003097143701 0.04
0.001419726924 -0.003097143701 0.04
0.001498894051 -0.003097143701 0.04
0.001578061177 -0.003097143701 0.04
0.001657228304 -0.003097143701 0.04
0.00173639543 -0.003097143701 0.04
0.001815562557 -0.003097143701 0.04
0.001894729683 -0.003097143701 0.04
0.001924549389 -0.003019715109 0.039
0.002001737338 -0.003019715109 0.039
0.002078925286 -0.003019715109 0.039
0.002156113234 -0.003019715109 0.039
0.002233301183 -0.003019715109 0.039
0.002310489131 -0.003019715109 0.039
0.002387677079 -0.003019715109 0.039
0.002464865027 -0.003019715109 0.039
0.002542052976 -0.003019715109 0.039
0.002619240924 -0.003019715109 0.039
0.002696428872 -0.003019715109 0.039
0.002773616821 -0.003019715109 0.039
0.002850804769 -0.003019715109 0.039
0.002927992717 -0.003019715109 0.039
0.003005180666 -0.003019715109 0.039
0.003082368614 -0.003019715109 0.039
0.003159556562 -0.003019715109 0.039
0.00323674451 -0.003019715109 0.039
0.003313932459 -0.003019715109 0.039
0.003391120407 -0.003019715109 0.039
0.003468308355 -0.003019715109 0.039
0.003545496304 -0.003019715109 0.039
0.003622684252 -0.003019715109 0.039
0.0036998722 -0.003019715109 0.039
0.003777060149 -0.003019715109 0.039
0.003854248097 -0.003019715109 0.039
0.003931436045 -0.003019715109 0.039
0.004008623993 -0.003019715109 0.039
0.004085811942 -0.003019715109 0.039
0.00416299989 -0.003019715109 0.039
0.004131465073 -0.002942286516 0.038
0.004206673843 -0.002942286516 0.038
0.004281882613 -0.002942286516 0.038
0.004357091384 -0.002942286516 0.038
0.004432300154 -0.002942286516 0.038
0.004507508924 -0.002942286516 0.038
0.00446211986 -0.002864857924 0.037
0.004535349452 -0.002864857924 0.037
0.004608579044 -0.002864857924 0.037
0.004681808636 -0.002864857924 0.037
0.004755038228 -0.002864857924 0.037
0.00482826782 -0.002864857924 0.037
0.004901497412 -0.002864857924 0.037
0.004974727004 -0.002864857924 0.037
0.005047956596 -0.002864857924 0.037
0.005121186188 -0.002864857924 0.037
0.00519441578 -0.002864857924 0.037
0.005267645372 -0.002864857924 0.037
0.005196526992 -0.002787429331 0.036
0.005267777406 -0.002787429331 0.036
0.005339027819 -0.002787429331 0.036
0.005410278233 -0.002787429331 0.036
0.005481528647 -0.002787429331 0.036
0.005552779061 -0.002787429331 0.036
0.005624029475 -0.002787429331 0.036
0.005695279888 -0.002787429331 0.036
0.005766530302 -0.002787429331 0.036
0.005675620141 -0.002710000739 0.035
0.005744891376 -0.002710000739 0.035
0.005814162612 -0.002710000739 0.035
0.005883433848 -0.002710000739 0.035
0.005952705083 -0.002710000739 0.035
0.006021976319 -0.002710000739 0.035
0.006091247554 -0.002710000739 0.035
0.00616051879 -0.002710000739 0.035
0.006229790026 -0.002710000739 0.035
0.006299061261 -0.002710000739 0.035
0.006368332497 -0.002710000739 0.035
0.006253672198 -0.002632572146 0.034
0.006320964255 -0.002632572146 0.034
0.006388256313 -0.002632572146 0.034
0.00645554837 -0.002632572146 0.034
0.006522840427 -0.002632572146 0.034
0.006590132485 -0.002632572146 0.034
0.006657424542 -0.002632572146 0.034
0.0067247166 -0.002632572146 0.034
0.006792008657 -0.002632572146 0.034
0.006859300715 -0.002632572146 0.034
0.006926592772 -0.002632572146 0.034
0.00699388483 -0.002632572146 0.034
0.007061176887 -0.002632572146 0.034
0.007128468945 -0.002632572146 0.034
0.007195761002 -0.002632572146 0.034
0.00726305306 -0.002632572146 0.034
0.007330345117 -0.002632572146 0.034
0.007397637175 -0.002632572146 0.034
0.00724537249 -0.002555143553 0.033
0.00731068537 -0.002555143553 0.033
0.007375998249 -0.002555143553 0.033
0.007441311128 -0.002555143553 0.033
0.007506624008 -0.002555143553 0.033
0.007571936887 -0.002555143553 0.033
0.007637249766 -0.002555143553 0.033
0.007702562646 -0.002555143553 0.033
0.007767875525 -0.002555143553 0.033
0.007833188404 -0.002555143553 0.033
0.008377198331 -0.002710000739 0.035
0.008205141865 -0.002632572146 0.034
0.007785820162 -0.002477714961 0.032
0.007603867805 -0.002400286368 0.031
0.008159752801 -0.002555143553 0.033
0.00822506568 -0.002555143553 0.033
0.008541602152 -0.002632572146 0.034
0.007089677584 -0.002168000591 0.028
0.008421004318 -0.002555143553 0.033
0.007971994943 -0.002400286368 0.031
0.007774209161 -0.002322857776 0.03
0.007311345539 -0.002168000591 0.028
0.008419157174 -0.002477714961 0.032
0.007157101676 -0.002090571998 0.027
0.000534114036 -0.0001548571851 0.002
0.000545989105 -0.0001548571851 0.002
0.0008308587264 -0.0002322857776 0.003
0.0008367962609 -0.0002322857776 0.003
0.0005736975992 -0.0001548571851 0.002
-0.0006354482236 -7.544982312e-05 0.001
-0.0006295106892 -7.544982312e-05 0.001
-0.01443322475 -0.001735345932 0.023
-0.01376215132 -0.001659896109 0.022
-0.01496575571 -0.001810795755 0.024
-0.01367506748 -0.001659896109 0.022
-0.01487075516 -0.001810795755 0.024
-0.01482325488 -0.001810795755 0.024
-0.01477575461 -0.001810795755 0.024
-0.01472825433 -0.001810795755 0.024
-0.01529245214 -0.001886245578 0.025
-0.01524297269 -0.001886245578 0.025
-0.01519349323 -0.001886245578 0.025
-0.01453825323 -0.001810795755 0.024
-0.01509453433 -0.001886245578 0.025
-0.01504505487 -0.001886245578 0.025
-0.01499557542 -0.001886245578 0.025
-0.01494609596 -0.001886245578 0.025
-0.01549248117 -0.001961695401 0.026
-0.01544102254 -0.001961695401 0.026
-0.01538956391 -0.001961695401 0.026
-0.01533810527 -0.001961695401 0.026
-0.01528664664 -0.001961695401 0.026
-0.01582115678 -0.002037145224 0.027
-0.01576771897 -0.002037145224 0.027
-0.01571428116 -0.002037145224 0.027
-0.01566084335 -0.002037145224 0.027
-0.01560740554 -0.002037145224 0.027
-0.01555396773 -0.002037145224 0.027
-0.01550052992 -0.002037145224 0.027
-0.01601920663 -0.002112595047 0.028
-0.01596378964 -0.002112595047 0.028
-0.01590837265 -0.002112595047 0.028
-0.01585295566 -0.002112595047 0.028
-0.01579753868 -0.002112595047 0.028
-0.01630434032 -0.00218804487 0.029
-0.01624694415 -0.00218804487 0.029
-0.01618954798 -0.00218804487 0.029
-0.01613215182 -0.00218804487 0.029
-0.01607475565 -0.00218804487 0.029
-0.01601735948 -0.00218804487 0.029
-0.01595996332 -0.00218804487 0.029
-0.01645093154 -0.002263494694 0.03
-0.01639155619 -0.002263494694 0.03
-0.01633218085 -0.002263494694 0.03
-0.0162728055 -0.002263494694 0.03
-0.01621343016 -0.002263494694 0.03
-0.01615405481 -0.002263494694 0.03
-0.01609467947 -0.002263494694 0.03
-0.01656981426 -0.002338944517 0.031
-0.01650845974 -0.002338944517 0.031
-0.01644710521 -0.002338944517 0.031
-0.01638575069 -0.002338944517 0.031
-0.01632439617 -0.002338944517 0.031
-0.01626304164 -0.002338944517 0.031
-0.01620168712 -0.002338944517 0.031
-0.0161403326 -0.002338944517 0.031
-0.01607897808 -0.002338944517 0.031
-0.01601762355 -0.002338944517 0.031
-0.01595626903 -0.002338944517 0.031
-0.01589491451 -0.002338944517 0.031
-0.01634431998 -0.00241439434 0.032
-0.01628098628 -0.00241439434 0.032
-0.01621765258 -0.00241439434 0.032
-0.01615431888 -0.00241439434 0.032
-0.01609098518 -0.00241439434 0.032
-0.01652851559 -0.002489844163 0.033
-0.01646320271 -0.002489844163 0.033
-0.01639788983 -0.002489844163 0.033
-0.01633257695 -0.002489844163 0.033
-0.01626726407 -0.002489844163 0.033
-0.01620195119 -0.002489844163 0.033
-0.01613663831 -0.002489844163 0.033
-0.01607132543 -0.002489844163 0.033
-0.01600601255 -0.002489844163 0.033
-0.01594069967 -0.002489844163 0.033
-0.01587538679 -0.002489844163 0.033
-0.01581007391 -0.002489844163 0.033
-0.01574476103 -0.002489844163 0.033
-0.01567944815 -0.002489844163 0.033
-0.01608729089 -0.002565293986 0.034
-0.01601999883 -0.002565293986 0.034
-0.01595270677 -0.002565293986 0.034
-0.01588541472 -0.002565293986 0.034
-0.01581812266 -0.002565293986 0.034
-0.01528757088 -0.002489844163 0.033
-0.01568353854 -0.002565293986 0.034
-0.01561624649 -0.002565293986 0.034
-0.01554895443 -0.002565293986 0.034
-0.01548166237 -0.002565293986 0.034
-0.01541437031 -0.002565293986 0.034
-0.01579846291 -0.002640743809 0.035
-0.01572919168 -0.002640743809 0.035
-0.01565992044 -0.002640743809 0.035
-0.0155906492 -0.002640743809 0.035
-0.01552137797 -0.002640743809 0.035
-0.01545210673 -0.002640743809 0.035
-0.0153828355 -0.002640743809 0.035
-0.01531356426 -0.002640743809 0.035
-0.01524429303 -0.002640743809 0.035
-0.01517502179 -0.002640743809 0.035
-0.01510575056 -0.002640743809 0.035
-0.01503647932 -0.002640743809 0.035
-0.01496720808 -0.002640743809 0.035
-0.01489793685 -0.002640743809 0.035
-0.01482866561 -0.002640743809 0.035
-0.01518109136 -0.002716193632 0.036
-0.01510984095 -0.002716193632 0.036
-0.01503859053 -0.002716193632 0.036
-0.01496734012 -0.002716193632 0.036
-0.0148960897 -0.002716193632 0.036
-0.01482483929 -0.002716193632 0.036
-0.01475358888 -0.002716193632 0.036
-0.01468233846 -0.002716193632 0.036
-0.01461108805 -0.002716193632 0.036
-0.01453983763 -0.002716193632 0.036
-0.01446858722 -0.002716193632 0.036
-0.01439733681 -0.002716193632 0.036
-0.01432608639 -0.002716193632 0.036
-0.01425483598 -0.002716193632 0.036
-0.01418358557 -0.002716193632 0.036
-0.01450434446 -0.002791643455 0.037
-0.01443111487 -0.002791643455 0.037
-0.01435788528 -0.002791643455 0.037
-0.01428465569 -0.002791643455 0.037
-0.01421142609 -0.002791643455 0.037
-0.0141381965 -0.002791643455 0.037
-0.01406496691 -0.002791643455 0.037
-0.01399173732 -0.002791643455 0.037
-0.01391850773 -0.002791643455 0.037
-0.01384527813 -0.002791643455 0.037
-0.01377204854 -0.002791643455 0.037
-0.01369881895 -0.002791643455 0.037
-0.01362558936 -0.002791643455 0.037
-0.01355235977 -0.002791643455 0.037
-0.01347913017 -0.002791643455 0.037
-0.01340590058 -0.002791643455 0.037
-0.01369301345 -0.002867093278 0.038
-0.01361780468 -0.002867093278 0.038
-0.01354259591 -0.002867093278 0.038
-0.01346738714 -0.002867093278 0.038
-0.01339217837 -0.002867093278 0.038
-0.0133169696 -0.002867093278 0.038
-0.01324176083 -0.002867093278 0.038
-0.01316655206 -0.002867093278 0.038
-0.01309134329 -0.002867093278 0.038
-0.01301613452 -0.002867093278 0.038
-0.01294092575 -0.002867093278 0.038
-0.01320428848 -0.002942543102 0.039
-0.01312710053 -0.002942543102 0.039
-0.01304991258 -0.002942543102 0.039
-0.01297272463 -0.002942543102 0.039
-0.01289553668 -0.002942543102 0.039
-0.01281834874 -0.002942543102 0.039
-0.01274116079 -0.002942543102 0.039
-0.01266397284 -0.002942543102 0.039
-0.01258678489 -0.002942543102 0.039
-0.01250959694 -0.002942543102 0.039
-0.01243240899 -0.002942543102 0.039
-0.01235522105 -0.002942543102 0.039
-0.0122780331 -0.002942543102 0.039
-0.01220084515 -0.002942543102 0.039
-0.0121236572 -0.002942543102 0.039
-0.01204646925 -0.002942543102 0.039
-0.0119692813 -0.002942543102 0.039
-0.01189209336 -0.002942543102 0.039
-0.01181490541 -0.002942543102 0.039
-0.01173771746 -0.002942543102 0.039
-0.01166052951 -0.002942543102 0.039
-0.01188035032 -0.003017992925 0.04
-0.01180118319 -0.003017992925 0.04
-0.01172201607 -0.003017992925 0.04
-0.01164284894 -0.003017992925 0.04
-0.01156368181 -0.003017992925 0.04
-0.01148451469 -0.003017992925 0.04
-0.01140534756 -0.003017992925 0.04
-0.01132618044 -0.003017992925 0.04
-0.01124701331 -0.003017992925 0.04
-0.01116784618 -0.003017992925 0.04
-0.01108867906 -0.003017992925 0.04
-0.01100951193 -0.003017992925 0.04
-0.0109303448 -0.003017992925 0.04
-0.01085117768 -0.003017992925 0.04
-0.01077201055 -0.003017992925 0.04
-0.01069284342 -0.003017992925 0.04
-0.0106136763 -0.003017992925 0.04
-0.01053450917 -0.003017992925 0.04
-0.01045534204 -0.003017992925 0.04
-0.01037617492 -0.003017992925 0.04
-0.01029700779 -0.003017992925 0.04
-0.01021784067 -0.003017992925 0.04
-0.01013867354 -0.003017992925 0.04
-0.01005950641 -0.003017992925 0.04
-0.009980339286 -0.003017992925 0.04
-0.009901172159 -0.003017992925 0.04
-0.009822005033 -0.003017992925 0.04
-0.009742837906 -0.003017992925 0.04
-0.00966367078 -0.003017992925 0.04
-0.009584503653 -0.003017992925 0.04
-0.009505336527 -0.003017992925 0.04
-0.009426169401 -0.003017992925 0.04
-0.009347002274 -0.003017992925 0.04
-0.009267835148 -0.003017992925 0.04
-0.009418384722 -0.003093442748 0.041
-0.009337238417 -0.003093442748 0.041
-0.009256092112 -0.003093442748 0.041
-0.009174945808 -0.003093442748 0.041
-0.009093799503 -0.003093442748 0.041
-0.009012653199 -0.003093442748 0.041
-0.008931506894 -0.003093442748 0.041
-0.008850360589 -0.003093442748 0.041
-0.008769214285 -0.003093442748 0.041
-0.00868806798 -0.003093442748 0.041
-0.008606921676 -0.003093442748 0.041
-0.008525775371 -0.003093442748 0.041
-0.008444629066 -0.003093442748 0.041
-0.008363482762 -0.003093442748 0.041
-0.008282336457 -0.003093442748 0.041
-0.008201190152 -0.003093442748 0.041
-0.008120043848 -0.003093442748 0.041
-0.008234968215 -0.003168892571 0.042
-0.008151842732 -0.003168892571 0.042
-0.007876604934 -0.003093442748 0.041
-0.007795458629 -0.003093442748 0.041
-0.007714312325 -0.003093442748 0.041
-0.00763316602 -0.003093442748 0.041
-0.007552019715 -0.003093442748 0.041
-0.007653089835 -0.003168892571 0.042
-0.007569964353 -0.003168892571 0.042
-0.00748683887 -0.003168892571 0.042
-0.007403713387 -0.003168892571 0.042
-0.007320587904 -0.003168892571 0.042
-0.007237462422 -0.003168892571 0.042
-0.007154336939 -0.003168892571 0.042
-0.007071211456 -0.003168892571 0.042
-0.006988085973 -0.003168892571 0.042
-0.00690496049 -0.003168892571 0.042
-0.006821835008 -0.003168892571 0.042
-0.006738709525 -0.003168892571 0.042
-0.006655584042 -0.003168892571 0.042
-0.006572458559 -0.003168892571 0.042
-0.006643841007 -0.003244342394 0.043
-0.006558736346 -0.003244342394 0.043
-0.006473631685 -0.003244342394 0.043
-0.006388527024 -0.003244342394 0.043
-0.006303422363 -0.003244342394 0.043
-0.006218317702 -0.003244342394 0.043
-0.006133213041 -0.003244342394 0.043
-0.00604810838 -0.003244342394 0.043
-0.005963003719 -0.003244342394 0.043
-0.005877899058 -0.003244342394 0.043
-0.005792794397 -0.003244342394 0.043
-0.005707689737 -0.003244342394 0.043
-0.005622585076 -0.003244342394 0.043
-0.005537480415 -0.003244342394 0.043
-0.005452375754 -0.003244342394 0.043
-0.005367271093 -0.003244342394 0.043
-0.005282166432 -0.003244342394 0.043
-0.005197061771 -0.003244342394 0.043
-0.00511195711 -0.003244342394 0.043
-0.005026852449 -0.003244342394 0.043
-0.004941747788 -0.003244342394 0.043
-0.004743697938 -0.003168892571 0.042
-0.004660572455 -0.003168892571 0.042
-0.004686433805 -0.003244342394 0.043
-0.004601329144 -0.003244342394 0.043
-0.004516224483 -0.003244342394 0.043
-0.004431119822 -0.003244342394 0.043
-0.004346015161 -0.003244342394 0.043
-0.0042609105 -0.003244342394 0.043
-0.00417580584 -0.003244342394 0.043
-0.004090701179 -0.003244342394 0.043
-0.004005596518 -0.003244342394 0.043
-0.003920491857 -0.003244342394 0.043
-0.003835387196 -0.003244342394 0.043
-0.003750282535 -0.003244342394 0.043
-0.003665177874 -0.003244342394 0.043
-0.003580073213 -0.003244342394 0.043
-0.003494968552 -0.003244342394 0.043
-0.003409863891 -0.003244342394 0.043
-0.00332475923 -0.003244342394 0.043
-0.003239654569 -0.003244342394 0.043
-0.003154549908 -0.003244342394 0.043
-0.003069445247 -0.003244342394 0.043
-0.002984340586 -0.003244342394 0.043
-0.002899235925 -0.003244342394 0.043
-0.002814131264 -0.003244342394 0.043
-0.002665560869 -0.003168892571 0.042
-0.002582435386 -0.003168892571 0.042
-0.002499309903 -0.003168892571 0.042
-0.00241618442 -0.003168892571 0.042
-0.002333058937 -0.003168892571 0.042
-0.002249933455 -0.003168892571 0.042
-0.002166807972 -0.003168892571 0.042
-0.002083682489 -0.003168892571 0.042
-0.002000557006 -0.003168892571 0.042
-0.001917431523 -0.003168892571 0.042
-0.001834306041 -0.003168892571 0.042
-0.001751180558 -0.003168892571 0.042
-0.001668055075 -0.003168892571 0.042
-0.001584929592 -0.003168892571 0.042
-0.00150180411 -0.003168892571 0.042
-0.001384900564 -0.003093442748 0.041
-0.00130375426 -0.003093442748 0.041
-0.001222607955 -0.003093442748 0.041
-0.00114146165 -0.003093442748 0.041
-0.001060315346 -0.003093442748 0.041
-0.0009791690411 -0.003093442748 0.041
-0.0008980227365 -0.003093442748 0.041
-0.0008168764319 -0.003093442748 0.041
-0.0007357301273 -0.003093442748 0.041
-0.0006545838226 -0.003093442748 0.041
-0.000573437518 -0.003093442748 0.041
-0.0004802841106 -0.003017992925 0.04
-0.0004011169842 -0.003017992925 0.04
-0.0003219498577 -0.003017992925 0.04
-0.0002427827313 -0.003017992925 0.04
-0.0001636156048 -0.003017992925 0.04
-8.65596903e-05 -0.003093442748 0.041
-5.281351881e-06 -0.003017992925 0.04
7.388577458e-05 -0.003017992925 0.04
0.000153052901 -0.003017992925 0.04
0.0002322200275 -0.003017992925 0.04
0.000311387154 -0.003017992925 0.04
0.0003905542804 -0.003017992925 0.04
0.0004697214069 -0.003017992925 0.04
0.0005488885333 -0.003017992925 0.04
0.0006280556598 -0.003017992925 0.04
0.0007072227863 -0.003017992925 0.04
0.0007863899127 -0.003017992925 0.04
0.0008655570392 -0.003017992925 0.04
0.0009447241656 -0.003017992925 0.04
0.001023891292 -0.003017992925 0.04
0.001103058419 -0.003017992925 0.04
0.001152669906 -0.002942543102 0.039
0.001229857855 -0.002942543102 0.039
0.001307045803 -0.002942543102 0.039
0.001384233751 -0.002942543102 0.039
0.0014614217 -0.002942543102 0.039
0.001538609648 -0.002942543102 0.039
0.001615797596 -0.002942543102 0.039
0.001692985544 -0.002942543102 0.039
0.001770173493 -0.002942543102 0.039
0.001847361441 -0.002942543102 0.039
0.001924549389 -0.002942543102 0.039
0.002001737338 -0.002942543102 0.039
0.002078925286 -0.002942543102 0.039
0.002156113234 -0.002942543102 0.039
0.002233301183 -0.002942543102 0.039
0.002310489131 -0.002942543102 0.039
0.002387677079 -0.002942543102 0.039
0.002464865027 -0.002942543102 0.039
0.002542052976 -0.002942543102 0.039
0.002619240924 -0.002942543102 0.039
0.002696428872 -0.002942543102 0.039
0.002773616821 -0.002942543102 0.039
0.002850804769 -0.002942543102 0.039
0.002927992717 -0.002942543102 0.039
0.003005180666 -0.002942543102 0.039
0.003082368614 -0.002942543102 0.039
0.003159556562 -0.002942543102 0.039
0.00323674451 -0.002942543102 0.039
0.003313932459 -0.002942543102 0.039
0.003391120407 -0.002942543102 0.039
0.003468308355 -0.002942543102 0.039
0.003545496304 -0.002942543102 0.039
0.003622684252 -0.002942543102 0.039
0.0036998722 -0.002942543102 0.039
0.003777060149 -0.002942543102 0.039
0.003854248097 -0.002942543102 0.039
0.003931436045 -0.002942543102 0.039
0.004008623993 -0.002942543102 0.039
0.003981047533 -0.002867093278 0.038
0.004056256303 -0.002867093278 0.038
0.004131465073 -0.002867093278 0.038
0.004206673843 -0.002867093278 0.038
0.004281882613 -0.002867093278 0.038
0.004357091384 -0.002867093278 0.038
0.004315660676 -0.002791643455 0.037
0.004388890268 -0.002791643455 0.037
0.00446211986 -0.002791643455 0.037
0.004535349452 -0.002791643455 0.037
0.004484022854 -0.002716193632 0.036
0.004555273267 -0.002716193632 0.036
0.004626523681 -0.002716193632 0.036
0.004697774095 -0.002716193632 0.036
0.004769024509 -0.002716193632 0.036
0.004840274923 -0.002716193632 0.036
0.004911525336 -0.002716193632 0.036
0.00498277575 -0.002716193632 0.036
0.005054026164 -0.002716193632 0.036
0.005125276578 -0.002716193632 0.036
0.005196526992 -0.002716193632 0.036
0.005267777406 -0.002716193632 0.036
0.005190721491 -0.002640743809 0.035
0.005259992727 -0.002640743809 0.035
0.005329263962 -0.002640743809 0.035
0.005398535198 -0.002640743809 0.035
0.005467806434 -0.002640743809 0.035
0.005537077669 -0.002640743809 0.035
0.005606348905 -0.002640743809 0.035
0.005675620141 -0.002640743809 0.035
0.005744891376 -0.002640743809 0.035
0.005814162612 -0.002640743809 0.035
0.005715335738 -0.002565293986 0.034
0.005782627795 -0.002565293986 0.034
0.006021976319 -0.002640743809 0.035
0.00591721191 -0.002565293986 0.034
0.005984503968 -0.002565293986 0.034
0.006051796025 -0.002565293986 0.034
0.006119088083 -0.002565293986 0.034
0.00618638014 -0.002565293986 0.034
0.006253672198 -0.002565293986 0.034
0.006320964255 -0.002565293986 0.034
0.006388256313 -0.002565293986 0.034
0.00645554837 -0.002565293986 0.034
0.006522840427 -0.002565293986 0.034
0.006590132485 -0.002565293986 0.034
0.006657424542 -0.002565293986 0.034
0.0067247166 -0.002565293986 0.034
0.006792008657 -0.002565293986 0.034
0.006859300715 -0.002565293986 0.034
0.006926592772 -0.002565293986 0.034
0.00699388483 -0.002565293986 0.034
0.007061176887 -0.002565293986 0.034
0.006918808094 -0.002489844163 0.033
0.006984120973 -0.002489844163 0.033
0.007049433852 -0.002489844163 0.033
0.007114746732 -0.002489844163 0.033
0.007180059611 -0.002489844163 0.033
0.00724537249 -0.002489844163 0.033
0.00731068537 -0.002489844163 0.033
0.007375998249 -0.002489844163 0.033
0.007441311128 -0.002489844163 0.033
0.007506624008 -0.002489844163 0.033
0.007571936887 -0.002489844163 0.033
0.007637249766 -0.002489844163 0.033
0.007702562646 -0.002489844163 0.033
0.007767875525 -0.002489844163 0.033
0.007358449713 -0.002338944517 0.031
0.007419804236 -0.002338944517 0.031
0.007239831057 -0.002263494694 0.03
0.008029127042 -0.002489844163 0.033
0.007849153863 -0.00241439434 0.032
0.007912487564 -0.00241439434 0.032
0.007477332437 -0.002263494694 0.03
0.007285484189 -0.00218804487 0.029
0.00860889421 -0.002565293986 0.034
0.008165822369 -0.00241439434 0.032
0.007457672689 -0.00218804487 0.029
0.008292489771 -0.00241439434 0.032
0.008355823473 -0.00241439434 0.032
0.007629861189 -0.00218804487 0.029
0.008217413035 -0.002338944517 0.031
0.007477596504 -0.002112595047 0.028
0.008071085885 -0.002263494694 0.03
0.008672491978 -0.00241439434 0.032
0.007097858365 -0.001961695401 0.026
0.0002749737306 -7.544982312e-05 0.001
0.0002828904433 -7.544982312e-05 0.001
0.0005855726682 -0.0001508996462 0.002
0.0005895310245 -0.0001508996462 0.002
-0.0006334690455 -7.34710537e-05 0.001
-0.001259021378 -0.0001469421074 0.002
-0.009412972665 -0.001102065806 0.015
-0.01438770366 -0.001689834235 0.023
-0.01496575571 -0.001763305289 0.024
-0.01367506748 -0.001616363181 0.022
-0.01425114036 -0.001689834235 0.023
-0.01482325488 -0.001763305289 0.024
-0.01477575461 -0.001763305289 0.024
-0.01472825433 -0.001763305289 0.024
-0.01468075406 -0.001763305289 0.024
-0.01463325378 -0.001763305289 0.024
-0.0145857535 -0.001763305289 0.024
-0.01453825323 -0.001763305289 0.024
-0.01509453433 -0.001836776343 0.025
-0.01504505487 -0.001836776343 0.025
-0.01499557542 -0.001836776343 0.025
-0.01494609596 -0.001836776343 0.025
-0.01489661651 -0.001836776343 0.025
-0.01484713706 -0.001836776343 0.025
-0.01538956391 -0.001910247396 0.026
-0.01533810527 -0.001910247396 0.026
-0.01528664664 -0.001910247396 0.026
-0.01523518801 -0.001910247396 0.026
-0.01576771897 -0.00198371845 0.027
-0.01571428116 -0.00198371845 0.027
-0.01566084335 -0.00198371845 0.027
-0.01560740554 -0.00198371845 0.027
-0.01555396773 -0.00198371845 0.027
-0.01550052992 -0.00198371845 0.027
-0.01601920663 -0.002057189504 0.028
-0.01596378964 -0.002057189504 0.028
-0.01590837265 -0.002057189504 0.028
-0.01585295566 -0.002057189504 0.028
-0.01579753868 -0.002057189504 0.028
-0.01574212169 -0.002057189504 0.028
-0.0156867047 -0.002057189504 0.028
-0.01618954798 -0.002130660557 0.029
-0.01557587072 -0.002057189504 0.028
-0.01607475565 -0.002130660557 0.029
-0.01601735948 -0.002130660557 0.029
-0.01595996332 -0.002130660557 0.029
-0.01590256715 -0.002130660557 0.029
-0.01584517098 -0.002130660557 0.029
-0.01578777482 -0.002130660557 0.029
-0.01573037865 -0.002130660557 0.029
-0.01621343016 -0.002204131611 0.03
-0.01615405481 -0.002204131611 0.03
-0.01609467947 -0.002204131611 0.03
-0.01603530412 -0.002204131611 0.03
-0.01597592878 -0.002204131611 0.03
-0.01591655343 -0.002204131611 0.03
-0.01638575069 -0.002277602665 0.031
-0.01632439617 -0.002277602665 0.031
-0.01626304164 -0.002277602665 0.031
-0.01620168712 -0.002277602665 0.031
-0.0161403326 -0.002277602665 0.031
-0.01607897808 -0.002277602665 0.031
-0.01601762355 -0.002277602665 0.031
-0.01595626903 -0.002277602665 0.031
-0.01589491451 -0.002277602665 0.031
-0.01583355998 -0.002277602665 0.031
-0.01577220546 -0.002277602665 0.031
-0.01621765258 -0.002351073719 0.032
-0.01615431888 -0.002351073719 0.032
-0.01609098518 -0.002351073719 0.032
-0.01602765148 -0.002351073719 0.032
-0.01596431778 -0.002351073719 0.032
-0.01590098407 -0.002351073719 0.032
-0.01583765037 -0.002351073719 0.032
-0.01577431667 -0.002351073719 0.032
-0.01571098297 -0.002351073719 0.032
-0.01564764927 -0.002351073719 0.032
-0.01558431557 -0.002351073719 0.032
-0.01552098187 -0.002351073719 0.032
-0.01594069967 -0.002424544772 0.033
-0.01587538679 -0.002424544772 0.033
-0.01581007391 -0.002424544772 0.033
-0.01574476103 -0.002424544772 0.033
-0.01567944815 -0.002424544772 0.033
-0.01561413527 -0.002424544772 0.033
-0.0155488224 -0.002424544772 0.033
-0.01548350952 -0.002424544772 0.033
-0.01541819664 -0.002424544772 0.033
-0.01535288376 -0.002424544772 0.033
-0.01528757088 -0.002424544772 0.033
-0.01568353854 -0.002498015826 0.034
-0.01561624649 -0.002498015826 0.034
-0.01554895443 -0.002498015826 0.034
-0.01548166237 -0.002498015826 0.034
-0.01541437031 -0.002498015826 0.034
-0.01534707826 -0.002498015826 0.034
-0.0152797862 -0.002498015826 0.034
-0.01521249414 -0.002498015826 0.034
-0.0155906492 -0.00257148688 0.035
-0.01552137797 -0.00257148688 0.035
-0.01545210673 -0.00257148688 0.035
-0.0153828355 -0.00257148688 0.035
-0.01531356426 -0.00257148688 0.035
-0.01524429303 -0.00257148688 0.035
-0.01517502179 -0.00257148688 0.035
-0.01510575056 -0.00257148688 0.035
-0.01503647932 -0.00257148688 0.035
-0.01496720808 -0.00257148688 0.035
-0.01489793685 -0.00257148688 0.035
-0.01482866561 -0.00257148688 0.035
-0.01475939438 -0.00257148688 0.035
-0.01469012314 -0.00257148688 0.035
-0.01462085191 -0.00257148688 0.035
-0.01455158067 -0.00257148688 0.035
-0.0148960897 -0.002644957933 0.036
-0.01482483929 -0.002644957933 0.036
-0.01434376696 -0.00257148688 0.035
-0.01427449573 -0.00257148688 0.035
-0.01461108805 -0.002644957933 0.036
-0.01453983763 -0.002644957933 0.036
-0.01446858722 -0.002644957933 0.036
-0.01439733681 -0.002644957933 0.036
-0.01432608639 -0.002644957933 0.036
-0.01425483598 -0.002644957933 0.036
-0.01418358557 -0.002644957933 0.036
-0.01411233515 -0.002644957933 0.036
-0.01404108474 -0.002644957933 0.036
-0.01396983432 -0.002644957933 0.036
-0.01389858391 -0.002644957933 0.036
-0.0138273335 -0.002644957933 0.036
-0.01375608308 -0.002644957933 0.036
-0.01368483267 -0.002644957933 0.036
-0.01361358226 -0.002644957933 0.036
-0.01354233184 -0.002644957933 0.036
-0.01384527813 -0.002718428987 0.037
-0.01377204854 -0.002718428987 0.037
-0.01369881895 -0.002718428987 0.037
-0.01362558936 -0.002718428987 0.037
-0.01355235977 -0.002718428987 0.037
-0.01347913017 -0.002718428987 0.037
-0.01340590058 -0.002718428987 0.037
-0.01333267099 -0.002718428987 0.037
-0.0132594414 -0.002718428987 0.037
-0.01318621181 -0.002718428987 0.037
-0.01311298221 -0.002718428987 0.037
-0.01303975262 -0.002718428987 0.037
-0.01296652303 -0.002718428987 0.037
-0.01289329344 -0.002718428987 0.037
-0.01282006385 -0.002718428987 0.037
-0.01274683425 -0.002718428987 0.037
-0.01301613452 -0.002791900041 0.038
-0.01294092575 -0.002791900041 0.038
-0.01286571698 -0.002791900041 0.038
-0.01279050821 -0.002791900041 0.038
-0.01271529944 -0.002791900041 0.038
-0.01264009067 -0.002791900041 0.038
-0.0125648819 -0.002791900041 0.038
-0.01248967313 -0.002791900041 0.038
-0.01241446436 -0.002791900041 0.038
-0.01233925559 -0.002791900041 0.038
-0.01226404682 -0.002791900041 0.038
-0.01218883805 -0.002791900041 0.038
-0.01211362928 -0.002791900041 0.038
-0.01203842051 -0.002791900041 0.038
-0.0122780331 -0.002865371094 0.039
-0.01220084515 -0.002865371094 0.039
-0.0121236572 -0.002865371094 0.039
-0.01204646925 -0.002865371094 0.039
-0.0119692813 -0.002865371094 0.039
-0.01189209336 -0.002865371094 0.039
-0.01181490541 -0.002865371094 0.039
-0.01173771746 -0.002865371094 0.039
-0.01166052951 -0.002865371094 0.039
-0.01158334156 -0.002865371094 0.039
-0.01150615361 -0.002865371094 0.039
-0.01142896567 -0.002865371094 0.039
-0.01164284894 -0.002938842148 0.04
-0.01156368181 -0.002938842148 0.04
-0.01119740182 -0.002865371094 0.039
-0.01112021387 -0.002865371094 0.039
-0.01104302592 -0.002865371094 0.039
-0.01096583798 -0.002865371094 0.039
-0.01088865003 -0.002865371094 0.039
-0.01108867906 -0.002938842148 0.04
-0.01100951193 -0.002938842148 0.04
-0.0109303448 -0.002938842148 0.04
-0.01085117768 -0.002938842148 0.04
-0.01077201055 -0.002938842148 0.04
-0.01069284342 -0.002938842148 0.04
-0.0106136763 -0.002938842148 0.04
-0.01053450917 -0.002938842148 0.04
-0.01045534204 -0.002938842148 0.04
-0.01037617492 -0.002938842148 0.04
-0.01029700779 -0.002938842148 0.04
-0.009962394649 -0.002865371094 0.039
-0.0098852067 -0.002865371094 0.039
-0.009808018752 -0.002865371094 0.039
