# .PCD v0.7 - Point Cloud Data file format
VERSION 0.7
FIELDS x y z
SIZE 4 4 4
TYPE F F F
COUNT 1 1 1
WIDTH 1341
HEIGHT 1
VIEWPOINT 0 0 0 1 0 0 0
POINTS 1341
DATA ascii
-0.02757993316 -0.06619183853 0.242
-0.02726783982 -0.06646535852 0.243
-0.02684177983 -0.06646535852 0.243
-0.02630701316 -0.06619183853 0.242
-0.02577575317 -0.06591831853 0.241
-0.02524799984 -0.06564479854 0.24
-0.02482719984 -0.06564479854 0.24
-0.02450809318 -0.06591831853 0.241
-0.02398559985 -0.06564479854 0.24
-0.02356479985 -0.06564479854 0.24
-0.02314399985 -0.06564479854 0.24
-0.02272319985 -0.06564479854 0.24
-0.02230239986 -0.06564479854 0.24
-0.02188159986 -0.06564479854 0.24
-0.02146079986 -0.06564479854 0.24
-0.02103999986 -0.06564479854 0.24
-0.02061919987 -0.06564479854 0.24
-0.02011423987 -0.06537127855 0.239
-0.01969519321 -0.06537127855 0.239
-0.01927614654 -0.06537127855 0.239
-0.01885709988 -0.06537127855 0.239
-0.01843805321 -0.06537127855 0.239
-0.01801900655 -0.06537127855 0.239
-0.01767359989 -0.06564479854 0.24
-0.01725279989 -0.06564479854 0.24
-0.01683199989 -0.06564479854 0.24
-0.01641119989 -0.06564479854 0.24
-0.0159903999 -0.06564479854 0.24
-0.0155695999 -0.06564479854 0.24
-0.0150856799 -0.06537127855 0.239
-0.01466663324 -0.06537127855 0.239
-0.01424758657 -0.06537127855 0.239
-0.01382853991 -0.06537127855 0.239
-0.01340949325 -0.06537127855 0.239
-0.01299044658 -0.06537127855 0.239
-0.01257139992 -0.06537127855 0.239
-0.01215235325 -0.06537127855 0.239
-0.01173330659 -0.06537127855 0.239
-0.01131425993 -0.06537127855 0.239
-0.01089521326 -0.06537127855 0.239
-0.0104761666 -0.06537127855 0.239
-0.01005711994 -0.06537127855 0.239
-0.009597746605 -0.06509775855 0.238
-0.009180453274 -0.06509775855 0.238
-0.008763159943 -0.06509775855 0.238
-0.008310799946 -0.06482423856 0.237
-0.007928573282 -0.06509775855 0.238
-0.007479719952 -0.06482423856 0.237
-0.006974759955 -0.06400367858 0.234
-0.006564479958 -0.06400367858 0.234
-0.00612789996 -0.06373015858 0.233
-0.00569482663 -0.06345663859 0.232
-0.005310846632 -0.06373015858 0.233
-0.004902319968 -0.06373015858 0.233
-0.004493793304 -0.06373015858 0.233
-0.00408526664 -0.06373015858 0.233
-0.003676739976 -0.06373015858 0.233
-0.003254186646 -0.06345663859 0.232
-0.002871959981 -0.06400367858 0.234
-0.002461679984 -0.06400367858 0.234
-0.002033866654 -0.06345663859 0.232
-0.001669173323 -0.06509775855 0.238
-0.001230839992 -0.06400367858 0.234
-0.0008170533281 -0.06373015858 0.233
-0.0004102799974 -0.06400367858 0.234
-0.0005575599964 -0.0002717666606 0.001
-0.1178310126 -0.05761453205 0.212
-0.1157971459 -0.05679923207 0.209
-0.1126691993 -0.05544039877 0.204
-0.1123115193 -0.05544039877 0.204
-0.1119538393 -0.05544039877 0.204
-0.1110491193 -0.05516863211 0.203
-0.110147906 -0.05489686545 0.202
-0.1092501993 -0.05462509879 0.201
-0.1088977793 -0.05462509879 0.201
-0.109085386 -0.05489686545 0.202
-0.1087312126 -0.05489686545 0.202
-0.1089135593 -0.05516863211 0.203
-0.1085576326 -0.05516863211 0.203
-0.108201706 -0.05516863211 0.203
-0.1078457793 -0.05516863211 0.203
-0.1074898526 -0.05516863211 0.203
-0.107133926 -0.05516863211 0.203
-0.1067779993 -0.05516863211 0.203
-0.1064220726 -0.05516863211 0.203
-0.106066146 -0.05516863211 0.203
-0.1057102193 -0.05516863211 0.203
-0.1053542927 -0.05516863211 0.203
-0.1055155993 -0.05544039877 0.204
-0.1051579193 -0.05544039877 0.204
-0.1048002393 -0.05544039877 0.204
-0.1064904526 -0.05652746541 0.208
-0.1061257593 -0.05652746541 0.208
-0.1052525993 -0.05625569875 0.207
-0.1094500793 -0.05870159869 0.216
-0.1126060793 -0.06060396532 0.223
-0.110705466 -0.05978866534 0.22
-0.110821186 -0.060060432 0.221
-0.1129321993 -0.0614192653 0.226
-0.1135318393 -0.06196279862 0.228
-0.1136282726 -0.06223456528 0.229
-0.1117434393 -0.0614192653 0.226
-0.1118398726 -0.06169103196 0.227
-0.03485626644 -0.0192954329 0.071
-0.03326423979 -0.01848013292 0.068
-0.03217015979 -0.0179365996 0.066
-0.03254011312 -0.01820836626 0.067
-0.03242263979 -0.01820836626 0.067
-0.03085866647 -0.01739306628 0.064
-0.0317072798 -0.0179365996 0.066
-0.0311128998 -0.01766483294 0.065
-0.03099893313 -0.01766483294 0.065
-0.03088496647 -0.01766483294 0.065
-0.0302975998 -0.01739306628 0.064
-0.02971373981 -0.01712129962 0.063
-0.03007317314 -0.01739306628 0.064
-0.0304290998 -0.01766483294 0.065
-0.02984874647 -0.01739306628 0.064
-0.02880726648 -0.01684953296 0.062
-0.02823567982 -0.0165777663 0.061
-0.02812872648 -0.0165777663 0.061
-0.02802177315 -0.0165777663 0.061
-0.02791481982 -0.0165777663 0.061
-0.02780786649 -0.0165777663 0.061
-0.02770091315 -0.0165777663 0.061
-0.02759395982 -0.0165777663 0.061
-0.02748700649 -0.0165777663 0.061
-0.02738005316 -0.0165777663 0.061
-0.02727309982 -0.0165777663 0.061
-0.02716614649 -0.0165777663 0.061
-0.02705919316 -0.0165777663 0.061
-0.02695223983 -0.0165777663 0.061
-0.02684528649 -0.0165777663 0.061
-0.02673833316 -0.0165777663 0.061
-0.02663137983 -0.0165777663 0.061
-0.0265244265 -0.0165777663 0.061
-0.02641747316 -0.0165777663 0.061
-0.02631051983 -0.0165777663 0.061
-0.0262035665 -0.0165777663 0.061
-0.02609661316 -0.0165777663 0.061
-0.02598965983 -0.0165777663 0.061
-0.0258827065 -0.0165777663 0.061
-0.02577575317 -0.0165777663 0.061
-0.02566879983 -0.0165777663 0.061
-0.0255618465 -0.0165777663 0.061
-0.02545489317 -0.0165777663 0.061
-0.02534793984 -0.0165777663 0.061
-0.0252409865 -0.0165777663 0.061
-0.02513403317 -0.0165777663 0.061
-0.02502707984 -0.0165777663 0.061
-0.02492012651 -0.0165777663 0.061
-0.02481317317 -0.0165777663 0.061
-0.02470621984 -0.0165777663 0.061
-0.02459926651 -0.0165777663 0.061
-0.02449231318 -0.0165777663 0.061
-0.02438535984 -0.0165777663 0.061
-0.02427840651 -0.0165777663 0.061
-0.02417145318 -0.0165777663 0.061
-0.02406449984 -0.0165777663 0.061
-0.02395754651 -0.0165777663 0.061
-0.02385059318 -0.0165777663 0.061
-0.02374363985 -0.0165777663 0.061
-0.02363668651 -0.0165777663 0.061
-0.02352973318 -0.0165777663 0.061
-0.02342277985 -0.0165777663 0.061
-0.02331582652 -0.0165777663 0.061
-0.02320887318 -0.0165777663 0.061
-0.02310191985 -0.0165777663 0.061
-0.02299496652 -0.0165777663 0.061
-0.02288801319 -0.0165777663 0.061
-0.02278105985 -0.0165777663 0.061
-0.02267410652 -0.0165777663 0.061
-0.02256715319 -0.0165777663 0.061
-0.02246019985 -0.0165777663 0.061
-0.02235324652 -0.0165777663 0.061
-0.02224629319 -0.0165777663 0.061
-0.02213933986 -0.0165777663 0.061
-0.02203238652 -0.0165777663 0.061
-0.02192543319 -0.0165777663 0.061
-0.02181847986 -0.0165777663 0.061
-0.02171152653 -0.0165777663 0.061
-0.02160457319 -0.0165777663 0.061
-0.02149761986 -0.0165777663 0.061
-0.02139066653 -0.0165777663 0.061
-0.0212837132 -0.0165777663 0.061
-0.02117675986 -0.0165777663 0.061
-0.02106980653 -0.0165777663 0.061
-0.0209628532 -0.0165777663 0.061
-0.02085589987 -0.0165777663 0.061
-0.02074894653 -0.0165777663 0.061
-0.0206419932 -0.0165777663 0.061
-0.02053503987 -0.0165777663 0.061
-0.02042808653 -0.0165777663 0.061
-0.0203211332 -0.0165777663 0.061
-0.02021417987 -0.0165777663 0.061
-0.02010722654 -0.0165777663 0.061
-0.0200002732 -0.0165777663 0.061
-0.01989331987 -0.0165777663 0.061
-0.01978636654 -0.0165777663 0.061
-0.01967941321 -0.0165777663 0.061
-0.01957245987 -0.0165777663 0.061
-0.01946550654 -0.0165777663 0.061
-0.01935855321 -0.0165777663 0.061
-0.01925159988 -0.0165777663 0.061
-0.01914464654 -0.0165777663 0.061
-0.01903769321 -0.0165777663 0.061
-0.01893073988 -0.0165777663 0.061
-0.01882378655 -0.0165777663 0.061
-0.01871683321 -0.0165777663 0.061
-0.01860987988 -0.0165777663 0.061
-0.01850292655 -0.0165777663 0.061
-0.01839597321 -0.0165777663 0.061
-0.01828901988 -0.0165777663 0.061
-0.01818206655 -0.0165777663 0.061
-0.01807511322 -0.0165777663 0.061
-0.01796815988 -0.0165777663 0.061
-0.01786120655 -0.0165777663 0.061
-0.01775425322 -0.0165777663 0.061
-0.01764729989 -0.0165777663 0.061
-0.01754034655 -0.0165777663 0.061
-0.01743339322 -0.0165777663 0.061
-0.01732643989 -0.0165777663 0.061
-0.01721948656 -0.0165777663 0.061
-0.01711253322 -0.0165777663 0.061
-0.01700557989 -0.0165777663 0.061
-0.01689862656 -0.0165777663 0.061
-0.01679167322 -0.0165777663 0.061
-0.01668471989 -0.0165777663 0.061
-0.01657776656 -0.0165777663 0.061
-0.01647081323 -0.0165777663 0.061
-0.01636385989 -0.0165777663 0.061
-0.01625690656 -0.0165777663 0.061
-0.01614995323 -0.0165777663 0.061
-0.0160429999 -0.0165777663 0.061
-0.01593604656 -0.0165777663 0.061
-0.01582909323 -0.0165777663 0.061
-0.0157221399 -0.0165777663 0.061
-0.01561518657 -0.0165777663 0.061
-0.01550823323 -0.0165777663 0.061
-0.0154012799 -0.0165777663 0.061
-0.01529432657 -0.0165777663 0.061
-0.01518737324 -0.0165777663 0.061
-0.0150804199 -0.0165777663 0.061
-0.01497346657 -0.0165777663 0.061
-0.01486651324 -0.0165777663 0.061
-0.0147595599 -0.0165777663 0.061
-0.01465260657 -0.0165777663 0.061
-0.01454565324 -0.0165777663 0.061
-0.01443869991 -0.0165777663 0.061
-0.01433174657 -0.0165777663 0.061
-0.01422479324 -0.0165777663 0.061
-0.01411783991 -0.0165777663 0.061
-0.01401088658 -0.0165777663 0.061
-0.01390393324 -0.0165777663 0.061
-0.01379697991 -0.0165777663 0.061
-0.01369002658 -0.0165777663 0.061
-0.01358307325 -0.0165777663 0.061
-0.01347611991 -0.0165777663 0.061
-0.01336916658 -0.0165777663 0.061
-0.01326221325 -0.0165777663 0.061
-0.01315525992 -0.0165777663 0.061
-0.01304830658 -0.0165777663 0.061
-0.01294135325 -0.0165777663 0.061
-0.01283439992 -0.0165777663 0.061
-0.01272744658 -0.0165777663 0.061
-0.01262049325 -0.0165777663 0.061
-0.01251353992 -0.0165777663 0.061
-0.01240658659 -0.0165777663 0.061
-0.01229963325 -0.0165777663 0.061
-0.01219267992 -0.0165777663 0.061
-0.01208572659 -0.0165777663 0.061
-0.01197877326 -0.0165777663 0.061
-0.01187181992 -0.0165777663 0.061
-0.01176486659 -0.0165777663 0.061
-0.01165791326 -0.0165777663 0.061
-0.01155095993 -0.0165777663 0.061
-0.01144400659 -0.0165777663 0.061
-0.01133705326 -0.0165777663 0.061
-0.01123009993 -0.0165777663 0.061
-0.01112314659 -0.0165777663 0.061
-0.01101619326 -0.0165777663 0.061
-0.01090923993 -0.0165777663 0.061
-0.0108022866 -0.0165777663 0.061
-0.01069533326 -0.0165777663 0.061
-0.01058837993 -0.0165777663 0.061
-0.0001718266656 -0.0002717666606 0.001
-0.0003734599976 -0.0008152999819 0.003
-0.02879323981 -0.06468046523 0.238
-0.02873362648 -0.06549576521 0.241
-0.02854601982 -0.06603929853 0.243
-0.02823567982 -0.06631106519 0.244
-0.02780786649 -0.06631106519 0.244
-0.02726783982 -0.06603929853 0.243
-0.02684177983 -0.06603929853 0.243
-0.02630701316 -0.06576753187 0.242
-0.02566879983 -0.06522399855 0.24
-0.02514279984 -0.06495223189 0.239
-0.02482719984 -0.06522399855 0.24
-0.02440639984 -0.06522399855 0.24
-0.02388565985 -0.06495223189 0.239
-0.02356479985 -0.06522399855 0.24
-0.02314399985 -0.06522399855 0.24
-0.02281787985 -0.06549576521 0.241
-0.02239532652 -0.06549576521 0.241
-0.02188159986 -0.06522399855 0.24
-0.02146079986 -0.06522399855 0.24
-0.02103999986 -0.06522399855 0.24
-0.02053328653 -0.06495223189 0.239
-0.02011423987 -0.06495223189 0.239
-0.01969519321 -0.06495223189 0.239
-0.01927614654 -0.06495223189 0.239
-0.01885709988 -0.06495223189 0.239
-0.01843805321 -0.06495223189 0.239
-0.01801900655 -0.06495223189 0.239
-0.01759995989 -0.06495223189 0.239
-0.01718091322 -0.06495223189 0.239
-0.01683199989 -0.06522399855 0.24
-0.01641119989 -0.06522399855 0.24
-0.0159903999 -0.06522399855 0.24
-0.0155695999 -0.06522399855 0.24
-0.0151487999 -0.06522399855 0.24
-0.01466663324 -0.06495223189 0.239
-0.01424758657 -0.06495223189 0.239
-0.01382853991 -0.06495223189 0.239
-0.01340949325 -0.06495223189 0.239
-0.01299044658 -0.06495223189 0.239
-0.01257139992 -0.06495223189 0.239
-0.01215235325 -0.06495223189 0.239
-0.01173330659 -0.06495223189 0.239
-0.01131425993 -0.06495223189 0.239
-0.01089521326 -0.06495223189 0.239
-0.0104761666 -0.06495223189 0.239
-0.01001503994 -0.06468046523 0.238
-0.009557419938 -0.06440869857 0.237
-0.009180453274 -0.06468046523 0.238
-0.008799979943 -0.06495223189 0.239
-0.008345866613 -0.06468046523 0.238
-0.007928573282 -0.06468046523 0.238
-0.007511279951 -0.06468046523 0.238
-0.007034373288 -0.06413693191 0.236
-0.006592533291 -0.06386516525 0.235
-0.00615419996 -0.06359339859 0.234
-0.005719373296 -0.06332163193 0.233
-0.005310846632 -0.06332163193 0.233
-0.004902319968 -0.06332163193 0.233
-0.004493793304 -0.06332163193 0.233
-0.00408526664 -0.06332163193 0.233
-0.003676739976 -0.06332163193 0.233
-0.003254186646 -0.06304986526 0.232
-0.002871959981 -0.06359339859 0.234
-0.002419599984 -0.06250633194 0.23
-0.002077699987 -0.06440869857 0.237
-0.001655146656 -0.06413693191 0.236
-0.001251879992 -0.06468046523 0.238
-0.000827573328 -0.06413693191 0.236
-0.0004172933306 -0.06468046523 0.238
-0.0005575599964 -0.0002700133273 0.001
-0.1172752059 -0.05697281207 0.211
-0.1152430926 -0.05616277208 0.208
-0.1121168993 -0.05481270545 0.203
-0.1123115193 -0.05508271878 0.204
-0.1119538393 -0.05508271878 0.204
-0.1115961593 -0.05508271878 0.204
-0.1106931926 -0.05481270545 0.203
-0.1092501993 -0.05427267879 0.201
-0.1088977793 -0.05427267879 0.201
-0.1085453593 -0.05427267879 0.201
-0.1087312126 -0.05454269212 0.202
-0.1083770393 -0.05454269212 0.202
-0.1085576326 -0.05481270545 0.203
-0.108201706 -0.05481270545 0.203
-0.1078457793 -0.05481270545 0.203
-0.1074898526 -0.05481270545 0.203
-0.107133926 -0.05481270545 0.203
-0.1067779993 -0.05481270545 0.203
-0.1064220726 -0.05481270545 0.203
-0.106066146 -0.05481270545 0.203
-0.1057102193 -0.05481270545 0.203
-0.1058732793 -0.05508271878 0.204
-0.1055155993 -0.05508271878 0.204
-0.1056733993 -0.0553527321 0.205
-0.1048002393 -0.05508271878 0.204
-0.105466506 -0.05562274543 0.206
-0.1061257593 -0.05616277208 0.208
-0.1052525993 -0.05589275876 0.207
-0.1069165126 -0.05697281207 0.211
-0.1095763193 -0.05859289203 0.217
-0.1117118793 -0.05994295867 0.222
-0.1138299059 -0.0612930253 0.227
-0.1109333993 -0.05994295867 0.222
-0.1115400526 -0.06048298532 0.224
-0.1121396926 -0.06102301198 0.226
-0.1127323193 -0.06156303863 0.228
-0.03596612643 -0.0197109729 0.073
-0.03387439978 -0.01863091959 0.069
-0.03326423979 -0.01836090626 0.068
-0.03363243978 -0.01863091959 0.069
-0.03351145978 -0.01863091959 0.069
-0.0314547998 -0.01755086628 0.065
-0.03278733312 -0.01836090626 0.068
-0.03314851979 -0.01863091959 0.069
-0.03015557981 -0.01701083962 0.063
-0.03099893313 -0.01755086628 0.065
-0.03088496647 -0.01755086628 0.065
-0.0307709998 -0.01755086628 0.065
-0.03018538647 -0.01728085295 0.064
-0.03007317314 -0.01728085295 0.064
-0.0304290998 -0.01755086628 0.065
-0.02938235981 -0.01701083962 0.063
-0.02834263315 -0.01647081297 0.061
-0.02823567982 -0.01647081297 0.061
-0.02812872648 -0.01647081297 0.061
-0.02802177315 -0.01647081297 0.061
-0.02791481982 -0.01647081297 0.061
-0.02780786649 -0.01647081297 0.061
-0.02770091315 -0.01647081297 0.061
-0.02759395982 -0.01647081297 0.061
-0.02748700649 -0.01647081297 0.061
-0.02738005316 -0.01647081297 0.061
-0.02727309982 -0.01647081297 0.061
-0.02716614649 -0.01647081297 0.061
-0.02705919316 -0.01647081297 0.061
-0.02695223983 -0.01647081297 0.061
-0.02684528649 -0.01647081297 0.061
-0.02673833316 -0.01647081297 0.061
-0.02663137983 -0.01647081297 0.061
-0.0265244265 -0.01647081297 0.061
-0.02641747316 -0.01647081297 0.061
-0.02631051983 -0.01647081297 0.061
-0.0262035665 -0.01647081297 0.061
-0.02609661316 -0.01647081297 0.061
-0.02598965983 -0.01647081297 0.061
-0.0258827065 -0.01647081297 0.061
-0.02577575317 -0.01647081297 0.061
-0.02566879983 -0.01647081297 0.061
-0.0255618465 -0.01647081297 0.061
-0.02545489317 -0.01647081297 0.061
-0.02534793984 -0.01647081297 0.061
-0.0252409865 -0.01647081297 0.061
-0.02513403317 -0.01647081297 0.061
-0.02502707984 -0.01647081297 0.061
-0.02492012651 -0.01647081297 0.061
-0.02481317317 -0.01647081297 0.061
-0.02470621984 -0.01647081297 0.061
-0.02459926651 -0.01647081297 0.061
-0.02449231318 -0.01647081297 0.061
-0.02438535984 -0.01647081297 0.061
-0.02427840651 -0.01647081297 0.061
-0.02417145318 -0.01647081297 0.061
-0.02406449984 -0.01647081297 0.061
-0.02395754651 -0.01647081297 0.061
-0.02385059318 -0.01647081297 0.061
-0.02374363985 -0.01647081297 0.061
-0.02363668651 -0.01647081297 0.061
-0.02352973318 -0.01647081297 0.061
-0.02342277985 -0.01647081297 0.061
-0.02331582652 -0.01647081297 0.061
-0.02320887318 -0.01647081297 0.061
-0.02310191985 -0.01647081297 0.061
-0.02299496652 -0.01647081297 0.061
-0.02288801319 -0.01647081297 0.061
-0.02278105985 -0.01647081297 0.061
-0.02267410652 -0.01647081297 0.061
-0.02256715319 -0.01647081297 0.061
-0.02246019985 -0.01647081297 0.061
-0.02235324652 -0.01647081297 0.061
-0.02224629319 -0.01647081297 0.061
-0.02213933986 -0.01647081297 0.061
-0.02203238652 -0.01647081297 0.061
-0.02192543319 -0.01647081297 0.061
-0.02181847986 -0.01647081297 0.061
-0.02171152653 -0.01647081297 0.061
-0.02160457319 -0.01647081297 0.061
-0.02149761986 -0.01647081297 0.061
-0.02139066653 -0.01647081297 0.061
-0.0212837132 -0.01647081297 0.061
-0.02117675986 -0.01647081297 0.061
-0.02106980653 -0.01647081297 0.061
-0.0209628532 -0.01647081297 0.061
-0.02085589987 -0.01647081297 0.061
-0.02074894653 -0.01647081297 0.061
-0.0206419932 -0.01647081297 0.061
-0.02053503987 -0.01647081297 0.061
-0.02042808653 -0.01647081297 0.061
-0.0203211332 -0.01647081297 0.061
-0.02021417987 -0.01647081297 0.061
-0.02010722654 -0.01647081297 0.061
-0.0200002732 -0.01647081297 0.061
-0.01989331987 -0.01647081297 0.061
-0.01978636654 -0.01647081297 0.061
-0.01967941321 -0.01647081297 0.061
-0.01957245987 -0.01647081297 0.061
-0.01946550654 -0.01647081297 0.061
-0.01935855321 -0.01647081297 0.061
-0.01925159988 -0.01647081297 0.061
-0.01914464654 -0.01647081297 0.061
-0.01903769321 -0.01647081297 0.061
-0.01893073988 -0.01647081297 0.061
-0.01882378655 -0.01647081297 0.061
-0.01871683321 -0.01647081297 0.061
-0.01860987988 -0.01647081297 0.061
-0.01850292655 -0.01647081297 0.061
-0.01839597321 -0.01647081297 0.061
-0.01828901988 -0.01647081297 0.061
-0.01818206655 -0.01647081297 0.061
-0.01807511322 -0.01647081297 0.061
-0.01796815988 -0.01647081297 0.061
-0.01786120655 -0.01647081297 0.061
-0.01775425322 -0.01647081297 0.061
-0.01764729989 -0.01647081297 0.061
-0.01754034655 -0.01647081297 0.061
-0.01743339322 -0.01647081297 0.061
-0.01732643989 -0.01647081297 0.061
-0.01721948656 -0.01647081297 0.061
-0.01711253322 -0.01647081297 0.061
-0.01700557989 -0.01647081297 0.061
-0.01689862656 -0.01647081297 0.061
-0.01679167322 -0.01647081297 0.061
-0.01668471989 -0.01647081297 0.061
-0.01657776656 -0.01647081297 0.061
-0.01647081323 -0.01647081297 0.061
-0.01636385989 -0.01647081297 0.061
-0.01625690656 -0.01647081297 0.061
-0.01614995323 -0.01647081297 0.061
-0.0160429999 -0.01647081297 0.061
-0.01593604656 -0.01647081297 0.061
-0.01582909323 -0.01647081297 0.061
-0.0157221399 -0.01647081297 0.061
-0.01561518657 -0.01647081297 0.061
-0.01550823323 -0.01647081297 0.061
-0.0154012799 -0.01647081297 0.061
-0.01529432657 -0.01647081297 0.061
-0.01518737324 -0.01647081297 0.061
-0.0150804199 -0.01647081297 0.061
-0.01497346657 -0.01647081297 0.061
-0.01486651324 -0.01647081297 0.061
-0.0147595599 -0.01647081297 0.061
-0.01465260657 -0.01647081297 0.061
-0.01454565324 -0.01647081297 0.061
-0.01443869991 -0.01647081297 0.061
-0.01433174657 -0.01647081297 0.061
-0.01422479324 -0.01647081297 0.061
-0.01411783991 -0.01647081297 0.061
-0.01401088658 -0.01647081297 0.061
-0.01390393324 -0.01647081297 0.061
-0.01379697991 -0.01647081297 0.061
-0.01369002658 -0.01647081297 0.061
-0.01358307325 -0.01647081297 0.061
-0.01347611991 -0.01647081297 0.061
-0.01336916658 -0.01647081297 0.061
-0.01326221325 -0.01647081297 0.061
-0.01315525992 -0.01647081297 0.061
-0.01304830658 -0.01647081297 0.061
-0.01294135325 -0.01647081297 0.061
-0.01283439992 -0.01647081297 0.061
-0.01272744658 -0.01647081297 0.061
-0.01262049325 -0.01647081297 0.061
-0.01251353992 -0.01647081297 0.061
-0.01240658659 -0.01647081297 0.061
-0.01229963325 -0.01647081297 0.061
-0.01219267992 -0.01647081297 0.061
-0.01208572659 -0.01647081297 0.061
-0.01197877326 -0.01647081297 0.061
-0.01187181992 -0.01647081297 0.061
-0.01176486659 -0.01647081297 0.061
-0.01165791326 -0.01647081297 0.061
-0.01155095993 -0.01647081297 0.061
-0.01144400659 -0.01647081297 0.061
-0.01133705326 -0.01647081297 0.061
-0.01123009993 -0.01647081297 0.061
-0.01112314659 -0.01647081297 0.061
-0.01101619326 -0.01647081297 0.061
-0.01090923993 -0.01647081297 0.061
-0.0108022866 -0.01647081297 0.061
-0.01069533326 -0.01647081297 0.061
-0.01058837993 -0.01647081297 0.061
-0.0001718266656 -0.0002700133273 0.001
-0.0001262399992 -0.0002700133273 0.001
-0.0001227333325 -0.0002700133273 0.001
-0.02867225981 -0.06399315858 0.237
-0.02849517315 -0.06453318523 0.239
-0.02866349315 -0.06588325187 0.244
-0.02765707982 -0.06453318523 0.239
-0.02757993316 -0.06534322521 0.242
-0.02715562649 -0.06534322521 0.242
-0.02673131983 -0.06534322521 0.242
-0.0261983065 -0.06507321189 0.241
-0.0255618465 -0.06453318523 0.239
-0.02503759984 -0.0642631719 0.238
-0.02472375317 -0.06453318523 0.239
-0.02430470651 -0.06453318523 0.239
-0.02388565985 -0.06453318523 0.239
-0.02366298651 -0.06507321189 0.241
-0.02324043318 -0.06507321189 0.241
-0.02281787985 -0.06507321189 0.241
-0.02239532652 -0.06507321189 0.241
-0.02197277319 -0.06507321189 0.241
-0.02146079986 -0.06480319856 0.24
-0.02103999986 -0.06480319856 0.24
-0.02061919987 -0.06480319856 0.24
-0.02011423987 -0.06453318523 0.239
-0.01969519321 -0.06453318523 0.239
-0.01927614654 -0.06453318523 0.239
-0.01885709988 -0.06453318523 0.239
-0.01843805321 -0.06453318523 0.239
-0.01801900655 -0.06453318523 0.239
-0.01752631989 -0.0642631719 0.238
-0.01710902656 -0.0642631719 0.238
-0.01676186656 -0.06453318523 0.239
-0.01634281989 -0.06453318523 0.239
-0.0159903999 -0.06480319856 0.24
-0.0155695999 -0.06480319856 0.24
-0.0151487999 -0.06480319856 0.24
-0.01466663324 -0.06453318523 0.239
-0.01424758657 -0.06453318523 0.239
-0.01382853991 -0.06453318523 0.239
-0.01340949325 -0.06453318523 0.239
-0.01299044658 -0.06453318523 0.239
-0.01257139992 -0.06453318523 0.239
-0.01215235325 -0.06453318523 0.239
-0.01173330659 -0.06453318523 0.239
-0.01131425993 -0.06453318523 0.239
-0.01089521326 -0.06453318523 0.239
-0.01043233327 -0.0642631719 0.238
-0.01001503994 -0.0642631719 0.238
-0.009517093272 -0.06372314525 0.236
-0.009141879941 -0.06399315858 0.237
-0.008763159943 -0.0642631719 0.238
-0.008345866613 -0.0642631719 0.238
-0.007928573282 -0.0642631719 0.238
-0.007511279951 -0.0642631719 0.238
-0.007034373288 -0.06372314525 0.236
-0.006620586624 -0.06372314525 0.236
-0.00615419996 -0.0631831186 0.234
-0.00569482663 -0.06264309194 0.232
-0.005288053299 -0.06264309194 0.232
-0.004902319968 -0.06291310527 0.233
-0.004493793304 -0.06291310527 0.233
-0.00408526664 -0.06291310527 0.233
-0.003676739976 -0.06291310527 0.233
-0.003268213312 -0.06291310527 0.233
-0.002859686648 -0.06291310527 0.233
-0.002514279984 -0.06453318523 0.239
-0.002051399987 -0.0631831186 0.234
-0.001676186656 -0.06453318523 0.239
-0.001246619992 -0.06399315858 0.237
-0.0008310799946 -0.06399315858 0.237
-0.0004172933306 -0.0642631719 0.238
-0.1172752059 -0.05660285874 0.211
-0.1146890393 -0.05552981877 0.207
-0.1121168993 -0.05445677879 0.203
-0.1123115193 -0.05472503878 0.204
-0.1119538393 -0.05472503878 0.204
-0.1121431993 -0.05499329878 0.205
-0.1112384793 -0.05472503878 0.204
-0.1097937326 -0.0541885188 0.202
-0.1088977793 -0.0539202588 0.201
-0.1080053326 -0.05365199881 0.2
-0.1081929393 -0.0539202588 0.201
-0.1078405193 -0.0539202588 0.201
-0.1074880993 -0.0539202588 0.201
-0.1071356793 -0.0539202588 0.201
-0.1067832593 -0.0539202588 0.201
-0.106960346 -0.0541885188 0.202
-0.1066061726 -0.0541885188 0.202
-0.1067779993 -0.05445677879 0.203
-0.1064220726 -0.05445677879 0.203
-0.106066146 -0.05445677879 0.203
-0.1057102193 -0.05445677879 0.203
-0.1058732793 -0.05472503878 0.204
-0.1055155993 -0.05472503878 0.204
-0.1061888793 -0.05526155877 0.206
-0.105313966 -0.05499329878 0.205
-0.105466506 -0.05526155877 0.206
-0.1071461993 -0.05633459875 0.21
-0.107286466 -0.05660285874 0.211
-0.1079299393 -0.05713937873 0.213
-0.1100812793 -0.0584806787 0.218
-0.109195846 -0.05821241871 0.217
-0.1083139193 -0.05794415871 0.216
-0.1129321993 -0.06062675865 0.226
-0.1120379993 -0.06035849866 0.225
-0.1116434993 -0.06035849866 0.225
-0.1117434393 -0.06062675865 0.226
-0.03547343977 -0.01931471957 0.072
-0.03436533311 -0.01877819958 0.07
-0.03668849976 -0.02011949955 0.075
-0.03363243978 -0.01850993959 0.069
-0.03156876646 -0.01743689961 0.065
-0.03532615977 -0.01958297956 0.073
-0.03182299979 -0.01770515961 0.066
-0.03122686646 -0.01743689961 0.065
-0.03207021979 -0.0179734196 0.067
-0.03099893313 -0.01743689961 0.065
-0.03088496647 -0.01743689961 0.065
-0.0307709998 -0.01743689961 0.065
-0.03018538647 -0.01716863962 0.064
-0.03007317314 -0.01716863962 0.064
-0.02996095981 -0.01716863962 0.064
-0.02938235981 -0.01690037962 0.063
-0.02834263315 -0.01636385964 0.061
-0.02823567982 -0.01636385964 0.061
-0.02812872648 -0.01636385964 0.061
-0.02802177315 -0.01636385964 0.061
-0.02791481982 -0.01636385964 0.061
-0.02780786649 -0.01636385964 0.061
-0.02770091315 -0.01636385964 0.061
-0.02759395982 -0.01636385964 0.061
-0.02748700649 -0.01636385964 0.061
-0.02738005316 -0.01636385964 0.061
-0.02727309982 -0.01636385964 0.061
-0.02716614649 -0.01636385964 0.061
-0.02705919316 -0.01636385964 0.061
-0.02695223983 -0.01636385964 0.061
-0.02684528649 -0.01636385964 0.061
-0.02673833316 -0.01636385964 0.061
-0.02663137983 -0.01636385964 0.061
-0.0265244265 -0.01636385964 0.061
-0.02641747316 -0.01636385964 0.061
-0.02631051983 -0.01636385964 0.061
-0.0262035665 -0.01636385964 0.061
-0.02609661316 -0.01636385964 0.061
-0.02598965983 -0.01636385964 0.061
-0.0258827065 -0.01636385964 0.061
-0.02577575317 -0.01636385964 0.061
-0.02566879983 -0.01636385964 0.061
-0.0255618465 -0.01636385964 0.061
-0.02545489317 -0.01636385964 0.061
-0.02534793984 -0.01636385964 0.061
-0.0252409865 -0.01636385964 0.061
-0.02513403317 -0.01636385964 0.061
-0.02502707984 -0.01636385964 0.061
-0.02492012651 -0.01636385964 0.061
-0.02481317317 -0.01636385964 0.061
-0.02470621984 -0.01636385964 0.061
-0.02459926651 -0.01636385964 0.061
-0.02449231318 -0.01636385964 0.061
-0.02438535984 -0.01636385964 0.061
-0.02427840651 -0.01636385964 0.061
-0.02417145318 -0.01636385964 0.061
-0.02406449984 -0.01636385964 0.061
-0.02395754651 -0.01636385964 0.061
-0.02385059318 -0.01636385964 0.061
-0.02374363985 -0.01636385964 0.061
-0.02363668651 -0.01636385964 0.061
-0.02352973318 -0.01636385964 0.061
-0.02342277985 -0.01636385964 0.061
-0.02331582652 -0.01636385964 0.061
-0.02320887318 -0.01636385964 0.061
-0.02310191985 -0.01636385964 0.061
-0.02299496652 -0.01636385964 0.061
-0.02288801319 -0.01636385964 0.061
-0.02278105985 -0.01636385964 0.061
-0.02267410652 -0.01636385964 0.061
-0.02256715319 -0.01636385964 0.061
-0.02246019985 -0.01636385964 0.061
-0.02235324652 -0.01636385964 0.061
-0.02224629319 -0.01636385964 0.061
-0.02213933986 -0.01636385964 0.061
-0.02203238652 -0.01636385964 0.061
-0.02192543319 -0.01636385964 0.061
-0.02181847986 -0.01636385964 0.061
-0.02171152653 -0.01636385964 0.061
-0.02160457319 -0.01636385964 0.061
-0.02149761986 -0.01636385964 0.061
-0.02139066653 -0.01636385964 0.061
-0.0212837132 -0.01636385964 0.061
-0.02117675986 -0.01636385964 0.061
-0.02106980653 -0.01636385964 0.061
-0.0209628532 -0.01636385964 0.061
-0.02085589987 -0.01636385964 0.061
-0.02074894653 -0.01636385964 0.061
-0.0206419932 -0.01636385964 0.061
-0.02053503987 -0.01636385964 0.061
-0.02042808653 -0.01636385964 0.061
-0.0203211332 -0.01636385964 0.061
-0.02021417987 -0.01636385964 0.061
-0.02010722654 -0.01636385964 0.061
-0.0200002732 -0.01636385964 0.061
-0.01989331987 -0.01636385964 0.061
-0.01978636654 -0.01636385964 0.061
-0.01967941321 -0.01636385964 0.061
-0.01957245987 -0.01636385964 0.061
-0.01946550654 -0.01636385964 0.061
-0.01935855321 -0.01636385964 0.061
-0.01925159988 -0.01636385964 0.061
-0.01914464654 -0.01636385964 0.061
-0.01903769321 -0.01636385964 0.061
-0.01893073988 -0.01636385964 0.061
-0.01882378655 -0.01636385964 0.061
-0.01871683321 -0.01636385964 0.061
-0.01860987988 -0.01636385964 0.061
-0.01850292655 -0.01636385964 0.061
-0.01839597321 -0.01636385964 0.061
-0.01828901988 -0.01636385964 0.061
-0.01818206655 -0.01636385964 0.061
-0.01807511322 -0.01636385964 0.061
-0.01796815988 -0.01636385964 0.061
-0.01786120655 -0.01636385964 0.061
-0.01775425322 -0.01636385964 0.061
-0.01764729989 -0.01636385964 0.061
-0.01754034655 -0.01636385964 0.061
-0.01743339322 -0.01636385964 0.061
-0.01732643989 -0.01636385964 0.061
-0.01721948656 -0.01636385964 0.061
-0.01711253322 -0.01636385964 0.061
-0.01700557989 -0.01636385964 0.061
-0.01689862656 -0.01636385964 0.061
-0.01679167322 -0.01636385964 0.061
-0.01668471989 -0.01636385964 0.061
-0.01657776656 -0.01636385964 0.061
-0.01647081323 -0.01636385964 0.061
-0.01636385989 -0.01636385964 0.061
-0.01625690656 -0.01636385964 0.061
-0.01614995323 -0.01636385964 0.061
-0.0160429999 -0.01636385964 0.061
-0.01593604656 -0.01636385964 0.061
-0.01582909323 -0.01636385964 0.061
-0.0157221399 -0.01636385964 0.061
-0.01561518657 -0.01636385964 0.061
-0.01550823323 -0.01636385964 0.061
-0.0154012799 -0.01636385964 0.061
-0.01529432657 -0.01636385964 0.061
-0.01518737324 -0.01636385964 0.061
-0.0150804199 -0.01636385964 0.061
-0.01497346657 -0.01636385964 0.061
-0.01486651324 -0.01636385964 0.061
-0.0147595599 -0.01636385964 0.061
-0.01465260657 -0.01636385964 0.061
-0.01454565324 -0.01636385964 0.061
-0.01443869991 -0.01636385964 0.061
-0.01433174657 -0.01636385964 0.061
-0.01422479324 -0.01636385964 0.061
-0.01411783991 -0.01636385964 0.061
-0.01401088658 -0.01636385964 0.061
-0.01390393324 -0.01636385964 0.061
-0.01379697991 -0.01636385964 0.061
-0.01369002658 -0.01636385964 0.061
-0.01358307325 -0.01636385964 0.061
-0.01347611991 -0.01636385964 0.061
-0.01336916658 -0.01636385964 0.061
-0.01326221325 -0.01636385964 0.061
-0.01315525992 -0.01636385964 0.061
-0.01304830658 -0.01636385964 0.061
-0.01294135325 -0.01636385964 0.061
-0.01283439992 -0.01636385964 0.061
-0.01272744658 -0.01636385964 0.061
-0.01262049325 -0.01636385964 0.061
-0.01251353992 -0.01636385964 0.061
-0.01240658659 -0.01636385964 0.061
-0.01229963325 -0.01636385964 0.061
-0.01219267992 -0.01636385964 0.061
-0.01208572659 -0.01636385964 0.061
-0.01197877326 -0.01636385964 0.061
-0.01187181992 -0.01636385964 0.061
-0.01176486659 -0.01636385964 0.061
-0.01165791326 -0.01636385964 0.061
-0.01155095993 -0.01636385964 0.061
-0.01144400659 -0.01636385964 0.061
-0.01133705326 -0.01636385964 0.061
-0.01123009993 -0.01636385964 0.061
-0.01112314659 -0.01636385964 0.061
-0.01101619326 -0.01636385964 0.061
-0.01090923993 -0.01636385964 0.061
-0.0108022866 -0.01636385964 0.061
-0.01069533326 -0.01636385964 0.061
-0.01058837993 -0.01636385964 0.061
-0.0001718266656 -0.000268259994 0.001
-0.02994693314 -0.06545543854 0.244
-0.02951911981 -0.06545543854 0.244
-0.02897207981 -0.06518717855 0.243
-0.02831107315 -0.06465065856 0.241
-0.02823567982 -0.06545543854 0.244
-0.02780786649 -0.06545543854 0.244
-0.02726783982 -0.06518717855 0.243
-0.02684177983 -0.06518717855 0.243
-0.0261983065 -0.06465065856 0.241
-0.0255618465 -0.06411413857 0.239
-0.02514279984 -0.06411413857 0.239
-0.02472375317 -0.06411413857 0.239
-0.02430470651 -0.06411413857 0.239
-0.02388565985 -0.06411413857 0.239
-0.02366298651 -0.06465065856 0.241
-0.02314399985 -0.06438239857 0.24
-0.02272319985 -0.06438239857 0.24
-0.02230239986 -0.06438239857 0.24
-0.02188159986 -0.06438239857 0.24
-0.02146079986 -0.06438239857 0.24
-0.02103999986 -0.06438239857 0.24
-0.02061919987 -0.06438239857 0.24
-0.02019839987 -0.06438239857 0.24
-0.01977759987 -0.06438239857 0.24
-0.01935679987 -0.06438239857 0.24
-0.01893599988 -0.06438239857 0.24
-0.01843805321 -0.06411413857 0.239
-0.01801900655 -0.06411413857 0.239
-0.01752631989 -0.06384587858 0.238
-0.01703713989 -0.06357761859 0.237
-0.01676186656 -0.06411413857 0.239
-0.01634281989 -0.06411413857 0.239
-0.01592377323 -0.06411413857 0.239
-0.01550472657 -0.06411413857 0.239
-0.0150856799 -0.06411413857 0.239
-0.01466663324 -0.06411413857 0.239
-0.01424758657 -0.06411413857 0.239
-0.01382853991 -0.06411413857 0.239
-0.01340949325 -0.06411413857 0.239
-0.01299044658 -0.06411413857 0.239
-0.01257139992 -0.06411413857 0.239
-0.01215235325 -0.06411413857 0.239
-0.01173330659 -0.06411413857 0.239
-0.01131425993 -0.06411413857 0.239
-0.0108496266 -0.06384587858 0.238
-0.01043233327 -0.06384587858 0.238
-0.009972959936 -0.06357761859 0.237
-0.009476766605 -0.0630410986 0.235
-0.009103306608 -0.06330935859 0.236
-0.008763159943 -0.06384587858 0.238
-0.008310799946 -0.06357761859 0.237
-0.007895259949 -0.06357761859 0.237
-0.007479719952 -0.06357761859 0.237
-0.007004566621 -0.0630410986 0.235
-0.006620586624 -0.06330935859 0.236
-0.00612789996 -0.06250457861 0.233
-0.005670279963 -0.06196805862 0.231
-0.005265259966 -0.06196805862 0.231
-0.004881279968 -0.06223631862 0.232
-0.004493793304 -0.06250457861 0.233
-0.004102799974 -0.0627728386 0.234
-0.003692519976 -0.0627728386 0.234
-0.003296266645 -0.0630410986 0.235
-0.002884233315 -0.0630410986 0.235
-0.002451159984 -0.06250457861 0.233
-0.00206893332 -0.06330935859 0.236
-0.001641119989 -0.0627728386 0.234
-0.001267659992 -0.06465065856 0.241
-0.0008240666613 -0.0630410986 0.235
-0.000413786664 -0.06330935859 0.236
-0.0005575599964 -0.0002665066607 0.001
-0.1156077859 -0.05543338543 0.208
-0.1135809326 -0.05463386545 0.205
-0.1126691993 -0.05436735879 0.204
-0.1112104259 -0.05383434547 0.202
-0.1119538393 -0.05436735879 0.204
-0.1110491193 -0.05410085213 0.203
-0.1106931926 -0.05410085213 0.203
-0.1097937326 -0.05383434547 0.202
-0.1094395593 -0.05383434547 0.202
-0.1085453593 -0.05356783881 0.201
-0.1081929393 -0.05356783881 0.201
-0.1073039993 -0.05330133215 0.2
-0.1069533326 -0.05330133215 0.2
-0.106602666 -0.05330133215 0.2
-0.1062519993 -0.05330133215 0.2
-0.1064308393 -0.05356783881 0.201
-0.1066061726 -0.05383434547 0.202
-0.1067779993 -0.05410085213 0.203
-0.1064220726 -0.05410085213 0.203
-0.1065886393 -0.05436735879 0.204
-0.1062309593 -0.05436735879 0.204
-0.1058732793 -0.05436735879 0.204
-0.1055155993 -0.05436735879 0.204
-0.1056733993 -0.05463386545 0.205
-0.105313966 -0.05463386545 0.205
-0.105466506 -0.05490037211 0.206
-0.1056155393 -0.05516687877 0.207
-0.1067779993 -0.05596639876 0.21
-0.107423226 -0.05649941208 0.212
-0.1085663993 -0.05729893206 0.215
-0.106176606 -0.05623290542 0.211
-0.1118240926 -0.05943098535 0.223
-0.1109333993 -0.05916447868 0.222
-0.1115400526 -0.05969749201 0.224
-0.1116434993 -0.05996399867 0.225
-0.1112489993 -0.05996399867 0.225
-0.03498075311 -0.01892197291 0.071
-0.0358381331 -0.01945498623 0.073
-0.03473177978 -0.01892197291 0.071
-0.03217015979 -0.01758943961 0.066
-0.03399713311 -0.01865546625 0.07
-0.03290655979 -0.01812245293 0.068
-0.03134083313 -0.01732293295 0.065
-0.03458975978 -0.01918847957 0.072
-0.03015557981 -0.01678991963 0.063
-0.03052202647 -0.01705642629 0.064
-0.03231042646 -0.01812245293 0.068
-0.02982419981 -0.01678991963 0.063
-0.03065703314 -0.01732293295 0.065
-0.02960327981 -0.01678991963 0.063
-0.02855653982 -0.01625690631 0.061
-0.0307815198 -0.01758943961 0.066
-0.02787799982 -0.01599039964 0.06
-0.02823567982 -0.01625690631 0.061
-0.02812872648 -0.01625690631 0.061
-0.02802177315 -0.01625690631 0.061
-0.02791481982 -0.01625690631 0.061
-0.02780786649 -0.01625690631 0.061
-0.02770091315 -0.01625690631 0.061
-0.02759395982 -0.01625690631 0.061
-0.02748700649 -0.01625690631 0.061
-0.02738005316 -0.01625690631 0.061
-0.02727309982 -0.01625690631 0.061
-0.02716614649 -0.01625690631 0.061
-0.02705919316 -0.01625690631 0.061
-0.02695223983 -0.01625690631 0.061
-0.02684528649 -0.01625690631 0.061
-0.02673833316 -0.01625690631 0.061
-0.02663137983 -0.01625690631 0.061
-0.0265244265 -0.01625690631 0.061
-0.02641747316 -0.01625690631 0.061
-0.02631051983 -0.01625690631 0.061
-0.0262035665 -0.01625690631 0.061
-0.02609661316 -0.01625690631 0.061
-0.02598965983 -0.01625690631 0.061
-0.0258827065 -0.01625690631 0.061
-0.02577575317 -0.01625690631 0.061
-0.02566879983 -0.01625690631 0.061
-0.0255618465 -0.01625690631 0.061
-0.02545489317 -0.01625690631 0.061
-0.02534793984 -0.01625690631 0.061
-0.0252409865 -0.01625690631 0.061
-0.02513403317 -0.01625690631 0.061
-0.02502707984 -0.01625690631 0.061
-0.02492012651 -0.01625690631 0.061
-0.02481317317 -0.01625690631 0.061
-0.02470621984 -0.01625690631 0.061
-0.02459926651 -0.01625690631 0.061
-0.02449231318 -0.01625690631 0.061
-0.02438535984 -0.01625690631 0.061
-0.02427840651 -0.01625690631 0.061
-0.02417145318 -0.01625690631 0.061
-0.02406449984 -0.01625690631 0.061
-0.02395754651 -0.01625690631 0.061
-0.02385059318 -0.01625690631 0.061
-0.02374363985 -0.01625690631 0.061
-0.02363668651 -0.01625690631 0.061
-0.02352973318 -0.01625690631 0.061
-0.02342277985 -0.01625690631 0.061
-0.02331582652 -0.01625690631 0.061
-0.02320887318 -0.01625690631 0.061
-0.02310191985 -0.01625690631 0.061
-0.02299496652 -0.01625690631 0.061
-0.02288801319 -0.01625690631 0.061
-0.02278105985 -0.01625690631 0.061
-0.02267410652 -0.01625690631 0.061
-0.02256715319 -0.01625690631 0.061
-0.02246019985 -0.01625690631 0.061
-0.02235324652 -0.01625690631 0.061
-0.02224629319 -0.01625690631 0.061
-0.02213933986 -0.01625690631 0.061
-0.02203238652 -0.01625690631 0.061
-0.02192543319 -0.01625690631 0.061
-0.02181847986 -0.01625690631 0.061
-0.02171152653 -0.01625690631 0.061
-0.02160457319 -0.01625690631 0.061
-0.02149761986 -0.01625690631 0.061
-0.02103999986 -0.01599039964 0.06
-0.02198153986 -0.01678991963 0.063
-0.02187107986 -0.01678991963 0.063
-0.02072439987 -0.01599039964 0.06
-0.02130650653 -0.01652341297 0.062
-0.02085589987 -0.01625690631 0.061
-0.02074894653 -0.01625690631 0.061
-0.0206419932 -0.01625690631 0.061
-0.02120831986 -0.01678991963 0.063
-0.01975831321 -0.01572389298 0.059
-0.01998799987 -0.01599039964 0.06
-0.02054555987 -0.01652341297 0.062
-0.01878871988 -0.01519087966 0.057
-0.02032814654 -0.01652341297 0.062
-0.02021943987 -0.01652341297 0.062
-0.01946199987 -0.01599039964 0.06
-0.01967941321 -0.01625690631 0.061
-0.02021417987 -0.01678991963 0.063
-0.01882729321 -0.01572389298 0.059
-0.01904119988 -0.01599039964 0.06
-0.01956719987 -0.01652341297 0.062
-0.01977233987 -0.01678991963 0.063
-0.01810141322 -0.01545738632 0.058
-0.01955141987 -0.01678991963 0.063
-0.01789802655 -0.01545738632 0.058
-0.01871683321 -0.01625690631 0.061
-0.01891495988 -0.01652341297 0.062
-0.01880625321 -0.01652341297 0.062
-0.01899911988 -0.01678991963 0.063
-0.01828901988 -0.01625690631 0.061
-0.01728786656 -0.01545738632 0.058
-0.01866773988 -0.01678991963 0.063
-0.01796815988 -0.01625690631 0.061
-0.01786120655 -0.01625690631 0.061
-0.01775425322 -0.01625690631 0.061
-0.01764729989 -0.01625690631 0.061
-0.01754034655 -0.01625690631 0.061
-0.01743339322 -0.01625690631 0.061
-0.01732643989 -0.01625690631 0.061
-0.01721948656 -0.01625690631 0.061
-0.01711253322 -0.01625690631 0.061
-0.01700557989 -0.01625690631 0.061
-0.01689862656 -0.01625690631 0.061
-0.01679167322 -0.01625690631 0.061
-0.01668471989 -0.01625690631 0.061
-0.01657776656 -0.01625690631 0.061
-0.01647081323 -0.01625690631 0.061
-0.01636385989 -0.01625690631 0.061
-0.01625690656 -0.01625690631 0.061
-0.01614995323 -0.01625690631 0.061
-0.0160429999 -0.01625690631 0.061
-0.01593604656 -0.01625690631 0.061
-0.01582909323 -0.01625690631 0.061
-0.0157221399 -0.01625690631 0.061
-0.01561518657 -0.01625690631 0.061
-0.01550823323 -0.01625690631 0.061
-0.0154012799 -0.01625690631 0.061
-0.01529432657 -0.01625690631 0.061
-0.01518737324 -0.01625690631 0.061
-0.0150804199 -0.01625690631 0.061
-0.01497346657 -0.01625690631 0.061
-0.01486651324 -0.01625690631 0.061
-0.0147595599 -0.01625690631 0.061
-0.01465260657 -0.01625690631 0.061
-0.01454565324 -0.01625690631 0.061
-0.01443869991 -0.01625690631 0.061
-0.01433174657 -0.01625690631 0.061
-0.01422479324 -0.01625690631 0.061
-0.01411783991 -0.01625690631 0.061
-0.01401088658 -0.01625690631 0.061
-0.01390393324 -0.01625690631 0.061
-0.01379697991 -0.01625690631 0.061
-0.01369002658 -0.01625690631 0.061
-0.01358307325 -0.01625690631 0.061
-0.01347611991 -0.01625690631 0.061
-0.01336916658 -0.01625690631 0.061
-0.01326221325 -0.01625690631 0.061
-0.01315525992 -0.01625690631 0.061
-0.01304830658 -0.01625690631 0.061
-0.01294135325 -0.01625690631 0.061
-0.01283439992 -0.01625690631 0.061
-0.01272744658 -0.01625690631 0.061
-0.01262049325 -0.01625690631 0.061
-0.01251353992 -0.01625690631 0.061
-0.01240658659 -0.01625690631 0.061
-0.01229963325 -0.01625690631 0.061
-0.01219267992 -0.01625690631 0.061
-0.01208572659 -0.01625690631 0.061
-0.01197877326 -0.01625690631 0.061
-0.01187181992 -0.01625690631 0.061
-0.01176486659 -0.01625690631 0.061
-0.01165791326 -0.01625690631 0.061
-0.01155095993 -0.01625690631 0.061
-0.01144400659 -0.01625690631 0.061
-0.01133705326 -0.01625690631 0.061
-0.01123009993 -0.01625690631 0.061
-0.01112314659 -0.01625690631 0.061
-0.01101619326 -0.01625690631 0.061
-0.01090923993 -0.01625690631 0.061
-0.0108022866 -0.01625690631 0.061
-0.01069533326 -0.01625690631 0.061
-0.01058837993 -0.01625690631 0.061
-0.0104814266 -0.01625690631 0.061
-0.0001262399992 -0.0002665066607 0.001
-0.02970146647 -0.0644946119 0.242
-0.02939813981 -0.06476111856 0.243
-0.02885285315 -0.0644946119 0.242
-0.02807612649 -0.06369509192 0.239
-0.02835139982 -0.06529413188 0.245
-0.02757993316 -0.0644946119 0.242
-0.02715562649 -0.0644946119 0.242
-0.02673131983 -0.0644946119 0.242
-0.02630701316 -0.0644946119 0.242
-0.02577575317 -0.06422810524 0.241
-0.02524799984 -0.06396159858 0.24
-0.02482719984 -0.06396159858 0.24
-0.02440639984 -0.06396159858 0.24
-0.02398559985 -0.06396159858 0.24
-0.02356479985 -0.06396159858 0.24
-0.02314399985 -0.06396159858 0.24
-0.02272319985 -0.06396159858 0.24
-0.02230239986 -0.06396159858 0.24
-0.02188159986 -0.06396159858 0.24
-0.02146079986 -0.06396159858 0.24
-0.02103999986 -0.06396159858 0.24
-0.0204473732 -0.06342858526 0.238
-0.02011423987 -0.06369509192 0.239
-0.01969519321 -0.06369509192 0.239
-0.01927614654 -0.06369509192 0.239
-0.01885709988 -0.06369509192 0.239
-0.01843805321 -0.06369509192 0.239
-0.01801900655 -0.06369509192 0.239
-0.01752631989 -0.06342858526 0.238
-0.01710902656 -0.06342858526 0.238
-0.01676186656 -0.06369509192 0.239
-0.01634281989 -0.06369509192 0.239
-0.01592377323 -0.06369509192 0.239
-0.01550472657 -0.06369509192 0.239
-0.0150856799 -0.06369509192 0.239
-0.01466663324 -0.06369509192 0.239
-0.01424758657 -0.06369509192 0.239
-0.01377067991 -0.06342858526 0.238
-0.01340949325 -0.06369509192 0.239
-0.01299044658 -0.06369509192 0.239
-0.01257139992 -0.06369509192 0.239
-0.01215235325 -0.06369509192 0.239
-0.01173330659 -0.06369509192 0.239
-0.01131425993 -0.06369509192 0.239
-0.0108496266 -0.06342858526 0.238
-0.01043233327 -0.06342858526 0.238
-0.009888799936 -0.06262906527 0.235
-0.009436439939 -0.06236255861 0.234
-0.00925759994 -0.06396159858 0.24
-0.008726339944 -0.0631620786 0.237
-0.008415999946 -0.06396159858 0.24
-0.007861946616 -0.06289557193 0.236
-0.007479719952 -0.0631620786 0.237
-0.007004566621 -0.06262906527 0.235
-0.006536426624 -0.06209605195 0.233
-0.006101599961 -0.06182954529 0.232
-0.00569482663 -0.06182954529 0.232
-0.005288053299 -0.06182954529 0.232
-0.004881279968 -0.06182954529 0.232
-0.004474506638 -0.06182954529 0.232
-0.004067733307 -0.06182954529 0.232
-0.003660959976 -0.06182954529 0.232
-0.003254186646 -0.06182954529 0.232
-0.002908779981 -0.0631620786 0.237
-0.002398559985 -0.06076351865 0.228
-0.00204263332 -0.06209605195 0.233
-0.001662159989 -0.0631620786 0.237
-0.001257139992 -0.06369509192 0.239
-0.0008205599947 -0.06236255861 0.234
-0.000413786664 -0.06289557193 0.236
-0.0005575599964 -0.0002647533274 0.001
-0.1150519793 -0.05480393878 0.207
-0.1135809326 -0.05427443213 0.205
-0.1121168993 -0.05374492547 0.203
-0.1112104259 -0.05348017214 0.202
-0.1114050459 -0.05374492547 0.203
-0.1110491193 -0.05374492547 0.203
-0.1106931926 -0.05374492547 0.203
-0.1097937326 -0.05348017214 0.202
-0.1094395593 -0.05348017214 0.202
-0.1085453593 -0.05321541882 0.201
-0.1081929393 -0.05321541882 0.201
-0.1073039993 -0.05295066549 0.2
-0.1069533326 -0.05295066549 0.2
-0.106602666 -0.05295066549 0.2
-0.1062519993 -0.05295066549 0.2
-0.1064308393 -0.05321541882 0.201
-0.1066061726 -0.05348017214 0.202
-0.1062519993 -0.05348017214 0.202
-0.1064220726 -0.05374492547 0.203
-0.106066146 -0.05374492547 0.203
-0.1057102193 -0.05374492547 0.203
-0.1058732793 -0.0540096788 0.204
-0.1060328326 -0.05427443213 0.205
-0.1056733993 -0.05427443213 0.205
-0.105313966 -0.05427443213 0.205
-0.105466506 -0.05453918545 0.206
-0.1056155393 -0.05480393878 0.207
-0.1062695326 -0.05533344544 0.209
-0.1069165126 -0.05586295209 0.211
-0.1080614393 -0.05665721207 0.214
-0.1081894326 -0.0569219654 0.215
-0.106308106 -0.05612770542 0.212
-0.1124324993 -0.05956949868 0.225
-0.1105441593 -0.05877523869 0.222
-0.1101549193 -0.05877523869 0.222
-0.1127323193 -0.06036375866 0.228
-0.03744418642 -0.02012125289 0.076
-0.03632906643 -0.01959174623 0.074
-0.03668849976 -0.01985649956 0.075
-0.03460729311 -0.01879748625 0.071
-0.03351145978 -0.01826797959 0.069
-0.0314547998 -0.01720896628 0.065
-0.03278733312 -0.01800322627 0.068
-0.0302660398 -0.01667945963 0.063
-0.03350619978 -0.01853273292 0.07
-0.03195274646 -0.01773847294 0.067
-0.02993465981 -0.01667945963 0.063
-0.0312443998 -0.01747371961 0.066
-0.02924209314 -0.0164147063 0.062
-0.03195274646 -0.01800322627 0.068
-0.0308972398 -0.01747371961 0.066
-0.02938235981 -0.01667945963 0.063
-0.02880726648 -0.0164147063 0.062
-0.02823567982 -0.01614995297 0.061
-0.02812872648 -0.01614995297 0.061
-0.02802177315 -0.01614995297 0.061
-0.02791481982 -0.01614995297 0.061
-0.02780786649 -0.01614995297 0.061
-0.02770091315 -0.01614995297 0.061
-0.02759395982 -0.01614995297 0.061
-0.02748700649 -0.01614995297 0.061
-0.02738005316 -0.01614995297 0.061
-0.02727309982 -0.01614995297 0.061
-0.02716614649 -0.01614995297 0.061
-0.02705919316 -0.01614995297 0.061
-0.02695223983 -0.01614995297 0.061
-0.02684528649 -0.01614995297 0.061
-0.02673833316 -0.01614995297 0.061
-0.02663137983 -0.01614995297 0.061
-0.0265244265 -0.01614995297 0.061
-0.02641747316 -0.01614995297 0.061
-0.02631051983 -0.01614995297 0.061
-0.0262035665 -0.01614995297 0.061
-0.02609661316 -0.01614995297 0.061
-0.02598965983 -0.01614995297 0.061
-0.0258827065 -0.01614995297 0.061
-0.02577575317 -0.01614995297 0.061
-0.02566879983 -0.01614995297 0.061
-0.0255618465 -0.01614995297 0.061
-0.02545489317 -0.01614995297 0.061
-0.02534793984 -0.01614995297 0.061
-0.0252409865 -0.01614995297 0.061
-0.02513403317 -0.01614995297 0.061
-0.02502707984 -0.01614995297 0.061
-0.02492012651 -0.01614995297 0.061
-0.02481317317 -0.01614995297 0.061
-0.02470621984 -0.01614995297 0.061
-0.02459926651 -0.01614995297 0.061
-0.02449231318 -0.01614995297 0.061
-0.02438535984 -0.01614995297 0.061
-0.02427840651 -0.01614995297 0.061
-0.02417145318 -0.01614995297 0.061
-0.02406449984 -0.01614995297 0.061
-0.02395754651 -0.01614995297 0.061
-0.02385059318 -0.01614995297 0.061
-0.02374363985 -0.01614995297 0.061
-0.02363668651 -0.01614995297 0.061
-0.02352973318 -0.01614995297 0.061
-0.02342277985 -0.01614995297 0.061
-0.02331582652 -0.01614995297 0.061
-0.02320887318 -0.01614995297 0.061
-0.02310191985 -0.01614995297 0.061
-0.02299496652 -0.01614995297 0.061
-0.02288801319 -0.01614995297 0.061
-0.02278105985 -0.01614995297 0.061
-0.02267410652 -0.01614995297 0.061
-0.02256715319 -0.01614995297 0.061
-0.02246019985 -0.01614995297 0.061
-0.02235324652 -0.01614995297 0.061
-0.02224629319 -0.01614995297 0.061
