# .PCD v0.7 - Point Cloud Data file format
VERSION 0.7
FIELDS x y z
SIZE 4 4 4
TYPE F F F
COUNT 1 1 1
WIDTH 1343
HEIGHT 1
VIEWPOINT 0 0 0 1 0 0 0
POINTS 1343
DATA ascii
-0.04165919973 -0.03973053245 0.11
-0.04146633307 -0.03973053245 0.11
-0.0412734664 -0.03973053245 0.11
-0.04108059973 -0.03973053245 0.11
-0.04088773307 -0.03973053245 0.11
-0.0406948664 -0.03973053245 0.11
-0.04050199974 -0.03973053245 0.11
-0.03994268641 -0.03936934579 0.109
-0.03902218641 -0.03864697247 0.107
-0.03810869975 -0.03792459916 0.105
-0.03756341309 -0.0375634125 0.104
-0.03702163309 -0.03720222584 0.103
-0.03684103976 -0.03720222584 0.103
-0.03630451977 -0.03684103918 0.102
-0.03612567977 -0.03684103918 0.102
-0.03594683977 -0.03684103918 0.102
-0.0354173331 -0.03647985252 0.101
-0.03524024644 -0.03647985252 0.101
-0.03471599978 -0.03611866586 0.1
-0.03454066644 -0.03611866586 0.1
-0.03436533311 -0.03611866586 0.1
-0.03384809978 -0.0357574792 0.099
-0.03367451978 -0.0357574792 0.099
-0.03316254645 -0.03539629255 0.098
-0.03299071979 -0.03539629255 0.098
-0.03281889312 -0.03539629255 0.098
-0.03264706646 -0.03539629255 0.098
-0.03247523979 -0.03539629255 0.098
-0.03197378646 -0.03503510589 0.097
-0.03180371313 -0.03503510589 0.097
-0.0316336398 -0.03503510589 0.097
-0.03146356646 -0.03503510589 0.097
-0.0309708798 -0.03467391923 0.096
-0.0308025598 -0.03467391923 0.096
-0.0306342398 -0.03467391923 0.096
-0.0304659198 -0.03467391923 0.096
-0.0302975998 -0.03467391923 0.096
-0.03012927981 -0.03467391923 0.096
-0.02996095981 -0.03467391923 0.096
-0.02979263981 -0.03467391923 0.096
-0.02931573314 -0.03431273257 0.095
-0.02914916648 -0.03431273257 0.095
-0.02898259981 -0.03431273257 0.095
-0.02881603315 -0.03431273257 0.095
-0.02864946648 -0.03431273257 0.095
-0.02848289982 -0.03431273257 0.095
-0.02831633315 -0.03431273257 0.095
-0.02814976648 -0.03431273257 0.095
-0.02798319982 -0.03431273257 0.095
-0.02781663315 -0.03431273257 0.095
-0.02765006649 -0.03431273257 0.095
-0.02748349982 -0.03431273257 0.095
-0.02731693316 -0.03431273257 0.095
-0.02715036649 -0.03431273257 0.095
-0.02698379983 -0.03431273257 0.095
-0.02681723316 -0.03431273257 0.095
-0.02665066649 -0.03431273257 0.095
-0.02648409983 -0.03431273257 0.095
-0.02631753316 -0.03431273257 0.095
-0.0261509665 -0.03431273257 0.095
-0.02625791983 -0.03467391923 0.096
-0.02608959983 -0.03467391923 0.096
-0.02592127983 -0.03467391923 0.096
-0.02575295983 -0.03467391923 0.096
-0.02558463983 -0.03467391923 0.096
-0.02541631984 -0.03467391923 0.096
-0.02524799984 -0.03467391923 0.096
-0.02507967984 -0.03467391923 0.096
-0.02491135984 -0.03467391923 0.096
-0.02500077984 -0.03503510589 0.097
-0.02483070651 -0.03503510589 0.097
-0.02466063317 -0.03503510589 0.097
-0.02449055984 -0.03503510589 0.097
-0.02432048651 -0.03503510589 0.097
-0.02439938651 -0.03539629255 0.098
-0.02422755984 -0.03539629255 0.098
-0.02405573318 -0.03539629255 0.098
-0.02388390651 -0.03539629255 0.098
-0.02395403985 -0.0357574792 0.099
-0.02378045985 -0.0357574792 0.099
-0.02360687985 -0.0357574792 0.099
-0.02343329985 -0.0357574792 0.099
-0.02325971985 -0.0357574792 0.099
-0.02285294652 -0.03539629255 0.098
-0.02268111985 -0.03539629255 0.098
-0.02227960652 -0.03503510589 0.097
-0.02210953319 -0.03503510589 0.097
-0.02171327986 -0.03467391923 0.096
-0.02154495986 -0.03467391923 0.096
-0.02137663986 -0.03467391923 0.096
-0.02120831986 -0.03467391923 0.096
-0.02103999986 -0.03467391923 0.096
-0.02087167987 -0.03467391923 0.096
-0.02070335987 -0.03467391923 0.096
-0.02053503987 -0.03467391923 0.096
-0.02015456654 -0.03431273257 0.095
-0.01998799987 -0.03431273257 0.095
-0.01982143321 -0.03431273257 0.095
-0.01965486654 -0.03431273257 0.095
-0.01928315988 -0.03395154591 0.094
-0.01891495988 -0.03359035925 0.093
-0.01875189988 -0.03359035925 0.093
-0.01878871988 -0.03395154591 0.094
-0.01882203321 -0.03431273257 0.095
-0.01826271988 -0.03359035925 0.093
-0.01907275988 -0.03539629255 0.098
-0.01909379988 -0.0357574792 0.099
-0.01853799321 -0.03503510589 0.097
-0.01893599988 -0.03611866586 0.1
-0.01894827321 -0.03647985252 0.101
-0.01765606655 -0.03431273257 0.095
-0.01767359989 -0.03467391923 0.096
-0.01805231988 -0.0357574792 0.099
-0.01697577322 -0.03395154591 0.094
-0.01681095989 -0.03395154591 0.094
-0.0007013333288 -0.001444746635 0.004
-0.0001735799989 -0.0003611866586 0.001
-0.0003401466645 -0.0007223733173 0.002
-0.0001648133323 -0.0003611866586 0.001
-0.0001613066656 -0.0003611866586 0.001
-0.03929219975 -0.089935478 0.249
-0.03901166641 -0.09029666466 0.25
-0.03857333308 -0.09029666466 0.25
-0.03798245975 -0.089935478 0.249
-0.03739509309 -0.08957429134 0.248
-0.03696026643 -0.08957429134 0.248
-0.03667271976 -0.089935478 0.249
-0.03623613977 -0.089935478 0.249
-0.03579955977 -0.089935478 0.249
-0.03522095977 -0.08957429134 0.248
-0.03464586644 -0.08921310468 0.247
-0.03407427978 -0.08885191802 0.246
-0.03377971978 -0.08921310468 0.247
-0.03361665978 -0.089935478 0.249
-0.03304682645 -0.08957429134 0.248
-0.03261199979 -0.08957429134 0.248
-0.03230691979 -0.089935478 0.249
-0.03174234646 -0.08957429134 0.248
-0.0311812798 -0.08921310468 0.247
-0.03087269313 -0.08957429134 0.248
-0.0305605998 -0.089935478 0.249
-0.03012401981 -0.089935478 0.249
-0.02968743981 -0.089935478 0.249
-0.02913338648 -0.08957429134 0.248
-0.02846711982 -0.08885191802 0.246
-0.02803579982 -0.08885191802 0.246
-0.02738005316 -0.08812954471 0.244
-0.02684177983 -0.08776835805 0.243
-0.02630701316 -0.08740717139 0.242
-0.0258827065 -0.08740717139 0.242
-0.02556359983 -0.08776835805 0.243
-0.0252409865 -0.08812954471 0.244
-0.02481317317 -0.08812954471 0.244
-0.02438535984 -0.08812954471 0.244
-0.02376117318 -0.08740717139 0.242
-9.643333271e-05 -0.0003611866586 0.001
-0.0001893599988 -0.0007223733173 0.002
-9.117333274e-05 -0.0003611866586 0.001
-0.0001718266656 -0.0007223733173 0.002
-0.000561066663 -0.0003594333253 0.001
-0.0005593133297 -0.0003594333253 0.001
-0.1222774659 -0.07907533158 0.22
-0.1235538925 -0.08015363155 0.223
-0.1209536992 -0.07871589825 0.219
-0.1249740925 -0.08159136485 0.227
-0.1174417726 -0.07691873162 0.214
-0.1181606392 -0.07763759827 0.216
-0.1166913459 -0.07691873162 0.214
-0.1157725993 -0.0765592983 0.213
-0.1153991393 -0.0765592983 0.213
-0.1150256793 -0.0765592983 0.213
-0.1146522193 -0.0765592983 0.213
-0.1137422393 -0.07619986497 0.212
-0.1128357659 -0.07584043165 0.211
-0.1129988259 -0.07619986497 0.212
-0.1126271193 -0.07619986497 0.212
-0.1127849193 -0.0765592983 0.213
-0.1129392126 -0.07691873162 0.214
-0.1130899993 -0.07727816495 0.215
-0.1121887859 -0.07691873162 0.214
-0.1118135726 -0.07691873162 0.214
-0.1119590993 -0.07727816495 0.215
-0.1100251726 -0.07619986497 0.212
-0.1127568659 -0.07835646492 0.218
-0.1134055993 -0.07907533158 0.22
-0.1130198659 -0.07907533158 0.22
-0.00153065999 -0.001078299976 0.003
-0.1164388659 -0.0823102315 0.229
-0.1165440659 -0.08266966483 0.23
-0.1110911993 -0.07907533158 0.22
-0.110705466 -0.07907533158 0.22
-0.110821186 -0.0794347649 0.221
-0.1099339993 -0.07907533158 0.22
-0.109548266 -0.07907533158 0.22
-0.1086663393 -0.07871589825 0.219
-0.1082823593 -0.07871589825 0.219
-0.1078983793 -0.07871589825 0.219
-0.108496266 -0.0794347649 0.221
-0.1071304193 -0.07871589825 0.219
-0.107233866 -0.07907533158 0.22
-0.1063624593 -0.07871589825 0.219
-0.1054945593 -0.07835646492 0.218
-0.104630166 -0.0779970316 0.217
-0.103288866 -0.07727816495 0.215
-0.1014759193 -0.07619986497 0.212
-0.1001503994 -0.07548099832 0.21
-0.1002573527 -0.07584043165 0.211
-0.09988739935 -0.07584043165 0.211
-0.09951744602 -0.07584043165 0.211
-0.09961738602 -0.07619986497 0.212
-0.09924567936 -0.07619986497 0.212
-0.09934035936 -0.0765592983 0.213
-0.09896689936 -0.0765592983 0.213
-0.09859343936 -0.0765592983 0.213
-0.09821997937 -0.0765592983 0.213
-0.09876526603 -0.07727816495 0.215
-0.09930353936 -0.0779970316 0.217
-0.09892306603 -0.0779970316 0.217
-0.0985425927 -0.0779970316 0.217
-0.09816211937 -0.0779970316 0.217
-0.0982322527 -0.07835646492 0.218
-0.09919658603 -0.0794347649 0.221
-0.09836199936 -0.07907533158 0.22
-0.09708557271 -0.07835646492 0.218
-0.09625975271 -0.0779970316 0.217
-0.09543743938 -0.07763759827 0.216
-0.09549880605 -0.0779970316 0.217
-0.09511833272 -0.0779970316 0.217
-0.09473785939 -0.0779970316 0.217
-0.09435738606 -0.0779970316 0.217
-0.09397691273 -0.0779970316 0.217
-0.0935964394 -0.0779970316 0.217
-0.09321596606 -0.0779970316 0.217
-0.09283549273 -0.0779970316 0.217
-0.0924550194 -0.0779970316 0.217
-0.09207454607 -0.0779970316 0.217
-0.09169407274 -0.0779970316 0.217
-0.0925759994 -0.07907533158 0.22
-0.0930283594 -0.07979419823 0.222
-0.09347370606 -0.08051306488 0.224
-0.09474311939 -0.08195079818 0.228
-0.09392957273 -0.08159136485 0.227
-0.09435563272 -0.0823102315 0.229
-0.09150997274 -0.08051306488 0.224
-0.09071045275 -0.08015363155 0.223
-0.08910439942 -0.07907533158 0.22
-0.08992846609 -0.08015363155 0.223
-0.08953747276 -0.08015363155 0.223
-0.08954623942 -0.08051306488 0.224
-0.04497475304 -0.04061596576 0.113
-0.04556913304 -0.04133483241 0.115
-0.04260599972 -0.03881879914 0.108
-0.04359487972 -0.03989709911 0.111
-0.04340025972 -0.03989709911 0.111
-0.04320563972 -0.03989709911 0.111
-0.04301101972 -0.03989709911 0.111
-0.04281639972 -0.03989709911 0.111
-0.04262177972 -0.03989709911 0.111
-0.04204493306 -0.03953766579 0.11
-0.0418520664 -0.03953766579 0.11
-0.04165919973 -0.03953766579 0.11
-0.04146633307 -0.03953766579 0.11
-0.0412734664 -0.03953766579 0.11
-0.04108059973 -0.03953766579 0.11
-0.04088773307 -0.03953766579 0.11
-0.04106481973 -0.03989709911 0.111
-0.04050199974 -0.03953766579 0.11
-0.03994268641 -0.03917823246 0.109
-0.03938687975 -0.03881879914 0.108
-0.03847163975 -0.03809993249 0.106
-0.03756341309 -0.03738106584 0.104
-0.03702163309 -0.03702163251 0.103
-0.03684103976 -0.03702163251 0.103
-0.03630451977 -0.03666219918 0.102
-0.03612567977 -0.03666219918 0.102
-0.03594683977 -0.03666219918 0.102
-0.0354173331 -0.03630276586 0.101
-0.03524024644 -0.03630276586 0.101
-0.03471599978 -0.03594333253 0.1
-0.03454066644 -0.03594333253 0.1
-0.03436533311 -0.03594333253 0.1
-0.03384809978 -0.03558389921 0.099
-0.03367451978 -0.03558389921 0.099
-0.03316254645 -0.03522446588 0.098
-0.03299071979 -0.03522446588 0.098
-0.03281889312 -0.03522446588 0.098
-0.03264706646 -0.03522446588 0.098
-0.03214385979 -0.03486503256 0.097
-0.03197378646 -0.03486503256 0.097
-0.03180371313 -0.03486503256 0.097
-0.0316336398 -0.03486503256 0.097
-0.03146356646 -0.03486503256 0.097
-0.0309708798 -0.03450559923 0.096
-0.0308025598 -0.03450559923 0.096
-0.0306342398 -0.03450559923 0.096
-0.0304659198 -0.03450559923 0.096
-0.0302975998 -0.03450559923 0.096
-0.03012927981 -0.03450559923 0.096
-0.02996095981 -0.03450559923 0.096
-0.02979263981 -0.03450559923 0.096
-0.02931573314 -0.03414616591 0.095
-0.02914916648 -0.03414616591 0.095
-0.02898259981 -0.03414616591 0.095
-0.02881603315 -0.03414616591 0.095
-0.02864946648 -0.03414616591 0.095
-0.02848289982 -0.03414616591 0.095
-0.02831633315 -0.03414616591 0.095
-0.02814976648 -0.03414616591 0.095
-0.02798319982 -0.03414616591 0.095
-0.02781663315 -0.03414616591 0.095
-0.02765006649 -0.03414616591 0.095
-0.02748349982 -0.03414616591 0.095
-0.02731693316 -0.03414616591 0.095
-0.02715036649 -0.03414616591 0.095
-0.02698379983 -0.03414616591 0.095
-0.02681723316 -0.03414616591 0.095
-0.02665066649 -0.03414616591 0.095
-0.02648409983 -0.03414616591 0.095
-0.02631753316 -0.03414616591 0.095
-0.0261509665 -0.03414616591 0.095
-0.02625791983 -0.03450559923 0.096
-0.02608959983 -0.03450559923 0.096
-0.02592127983 -0.03450559923 0.096
-0.02575295983 -0.03450559923 0.096
-0.02558463983 -0.03450559923 0.096
-0.02541631984 -0.03450559923 0.096
-0.02524799984 -0.03450559923 0.096
-0.02507967984 -0.03450559923 0.096
-0.02491135984 -0.03450559923 0.096
-0.02500077984 -0.03486503256 0.097
-0.02483070651 -0.03486503256 0.097
-0.02466063317 -0.03486503256 0.097
-0.02449055984 -0.03486503256 0.097
-0.02432048651 -0.03486503256 0.097
-0.02439938651 -0.03522446588 0.098
-0.02422755984 -0.03522446588 0.098
-0.02405573318 -0.03522446588 0.098
-0.02388390651 -0.03522446588 0.098
-0.02395403985 -0.03558389921 0.099
-0.02378045985 -0.03558389921 0.099
-0.02360687985 -0.03558389921 0.099
-0.02343329985 -0.03558389921 0.099
-0.02325971985 -0.03558389921 0.099
-0.02308613985 -0.03558389921 0.099
-0.02268111985 -0.03522446588 0.098
-0.02227960652 -0.03486503256 0.097
-0.02210953319 -0.03486503256 0.097
-0.02193945986 -0.03486503256 0.097
-0.02154495986 -0.03450559923 0.096
-0.02137663986 -0.03450559923 0.096
-0.02120831986 -0.03450559923 0.096
-0.02103999986 -0.03450559923 0.096
-0.02087167987 -0.03450559923 0.096
-0.02070335987 -0.03450559923 0.096
-0.02053503987 -0.03450559923 0.096
-0.02015456654 -0.03414616591 0.095
-0.01998799987 -0.03414616591 0.095
-0.01982143321 -0.03414616591 0.095
-0.01965486654 -0.03414616591 0.095
-0.01928315988 -0.03378673258 0.094
-0.01911834654 -0.03378673258 0.094
-0.01895353321 -0.03378673258 0.094
-0.01918847988 -0.03450559923 0.096
-0.01921828654 -0.03486503256 0.097
-0.01944095987 -0.03558389921 0.099
-0.01985123987 -0.03666219918 0.102
-0.01928666654 -0.03594333253 0.1
-0.01930244654 -0.03630276586 0.101
-0.01874663988 -0.03558389921 0.099
-0.01819784655 -0.03486503256 0.097
-0.01784191988 -0.03450559923 0.096
-0.01822589988 -0.03558389921 0.099
-0.01732293322 -0.03414616591 0.095
-0.0003611866643 -0.0007188666507 0.002
-0.0007153599954 -0.001437733301 0.004
-0.0001770866655 -0.0003594333253 0.001
-0.0003366399978 -0.0007188666507 0.002
-0.0001665666656 -0.0003594333253 0.001
-0.0003296266645 -0.0007188666507 0.002
-0.0001630599989 -0.0003594333253 0.001
-0.03984274641 -0.08878003136 0.247
-0.04004788641 -0.09021776466 0.251
-0.03929219975 -0.08949889801 0.249
-0.03854352642 -0.08878003136 0.247
-0.03841903975 -0.08949889801 0.249
-0.03782991976 -0.08913946468 0.248
-0.03724430643 -0.08878003136 0.247
-0.0368112331 -0.08878003136 0.247
-0.03652543976 -0.08913946468 0.248
-0.03623613977 -0.08949889801 0.249
-0.03579955977 -0.08949889801 0.249
-0.03522095977 -0.08913946468 0.248
-0.03478613311 -0.08913946468 0.248
-0.03407427978 -0.08842059803 0.246
-0.03364295978 -0.08842059803 0.246
-0.03348165312 -0.08913946468 0.248
-0.03291357312 -0.08878003136 0.247
-0.03248049979 -0.08878003136 0.247
-0.03204742646 -0.08878003136 0.247
-0.0314863598 -0.08842059803 0.246
-0.0311812798 -0.08878003136 0.247
-0.03074820647 -0.08878003136 0.247
-0.03031513314 -0.08878003136 0.247
-0.03000303981 -0.08913946468 0.248
-0.02956821314 -0.08913946468 0.248
-0.02901591315 -0.08878003136 0.247
-0.02858283982 -0.08878003136 0.247
-0.02814976648 -0.08878003136 0.247
-0.02738005316 -0.08770173138 0.244
-0.02695223983 -0.08770173138 0.244
-0.02641571983 -0.08734229806 0.243
-0.02598965983 -0.08734229806 0.243
-0.02556359983 -0.08734229806 0.243
-0.02513753984 -0.08734229806 0.243
-0.02481317317 -0.08770173138 0.244
-0.02438535984 -0.08770173138 0.244
-0.02385935985 -0.08734229806 0.243
-0.0001823466655 -0.0007188666507 0.002
-0.0002629999983 -0.001078299976 0.003
-0.0005593133297 -0.000357679992 0.001
-0.1228332725 -0.07904727824 0.221
-0.1229998392 -0.07940495823 0.222
-0.1220582992 -0.07904727824 0.221
-0.1211202659 -0.07868959825 0.22
-0.1196369459 -0.07797423827 0.218
-0.1176135992 -0.07690119829 0.215
-0.1166913459 -0.0765435183 0.214
-0.1157725993 -0.07618583831 0.213
-0.1153991393 -0.07618583831 0.213
-0.1144856526 -0.07582815831 0.212
-0.1141139459 -0.07582815831 0.212
-0.1137422393 -0.07582815831 0.212
-0.1139052993 -0.07618583831 0.213
-0.1135318393 -0.07618583831 0.213
-0.1126271193 -0.07582815831 0.212
-0.1127849193 -0.07618583831 0.213
-0.1124114593 -0.07618583831 0.213
-0.1120379993 -0.07618583831 0.213
-0.1116645393 -0.07618583831 0.213
-0.1118135726 -0.0765435183 0.214
-0.1124798393 -0.07725887828 0.216
-0.1131390926 -0.07797423827 0.218
-0.1122396326 -0.07761655827 0.217
-0.1128901193 -0.07833191826 0.219
-0.1119924126 -0.07797423827 0.218
-0.1126341326 -0.07868959825 0.22
-0.1122483993 -0.07868959825 0.22
-0.1164388659 -0.08190871818 0.229
-0.1140104993 -0.08047799821 0.225
-0.1131110393 -0.08012031822 0.224
-0.1122150859 -0.07976263823 0.223
-0.1118240926 -0.07976263823 0.223
-0.1109333993 -0.07940495823 0.222
-0.1100462126 -0.07904727824 0.221
-0.1086663393 -0.07833191826 0.219
-0.1082823593 -0.07833191826 0.219
-0.1078983793 -0.07833191826 0.219
-0.1080053326 -0.07868959825 0.22
-0.1071304193 -0.07833191826 0.219
-0.107233866 -0.07868959825 0.22
-0.1068481326 -0.07868959825 0.22
-0.1045267193 -0.07725887828 0.216
-0.1027014993 -0.07618583831 0.213
-0.101847626 -0.07582815831 0.212
-0.1009972593 -0.07547047832 0.211
-0.100627306 -0.07547047832 0.211
-0.1002573527 -0.07547047832 0.211
-0.09988739935 -0.07547047832 0.211
-0.09951744602 -0.07547047832 0.211
-0.09914749269 -0.07547047832 0.211
-0.09877753936 -0.07547047832 0.211
-0.09887397269 -0.07582815831 0.212
-0.09850226603 -0.07582815831 0.212
-0.09859343936 -0.07618583831 0.213
-0.09821997937 -0.07618583831 0.213
-0.09876526603 -0.07690119829 0.215
-0.09884591936 -0.07725887828 0.216
-0.09892306603 -0.07761655827 0.217
-0.0985425927 -0.07761655827 0.217
-0.09816211937 -0.07761655827 0.217
-0.0982322527 -0.07797423827 0.218
-0.0987477327 -0.07868959825 0.22
-0.09791489937 -0.07833191826 0.219
-0.09708557271 -0.07797423827 0.218
-0.09625975271 -0.07761655827 0.217
-0.09543743938 -0.07725887828 0.216
-0.09549880605 -0.07761655827 0.217
-0.09511833272 -0.07761655827 0.217
-0.09473785939 -0.07761655827 0.217
-0.09435738606 -0.07761655827 0.217
-0.09397691273 -0.07761655827 0.217
-0.0935964394 -0.07761655827 0.217
-0.09321596606 -0.07761655827 0.217
-0.09283549273 -0.07761655827 0.217
-0.0924550194 -0.07761655827 0.217
-0.09207454607 -0.07761655827 0.217
-0.09169407274 -0.07761655827 0.217
-0.0921551994 -0.07833191826 0.219
-0.09260931274 -0.07904727824 0.221
-0.09305641273 -0.07976263823 0.223
-0.09474311939 -0.08155103819 0.228
-0.09392957273 -0.08119335819 0.227
-0.09435563272 -0.08190871818 0.229
-0.09110144608 -0.07976263823 0.223
-0.09071045275 -0.07976263823 0.223
-0.09072447941 -0.08012031822 0.224
-0.09033173275 -0.08012031822 0.224
-0.0875299061 -0.07797423827 0.218
-0.08794719943 -0.07868959825 0.22
-0.04457674638 -0.04006015911 0.112
-0.04438037305 -0.04006015911 0.112
-0.04457849971 -0.0404178391 0.113
-0.04359487972 -0.03970247912 0.111
-0.04340025972 -0.03970247912 0.111
-0.04320563972 -0.03970247912 0.111
-0.04301101972 -0.03970247912 0.111
-0.04281639972 -0.03970247912 0.111
-0.04262177972 -0.03970247912 0.111
-0.04204493306 -0.03934479913 0.11
-0.0418520664 -0.03934479913 0.11
-0.04165919973 -0.03934479913 0.11
-0.04146633307 -0.03934479913 0.11
-0.0412734664 -0.03934479913 0.11
-0.04108059973 -0.03934479913 0.11
-0.04088773307 -0.03934479913 0.11
-0.04106481973 -0.03970247912 0.111
-0.04050199974 -0.03934479913 0.11
-0.03994268641 -0.03898711913 0.109
-0.03975157308 -0.03898711913 0.109
-0.03883457975 -0.03827175915 0.107
-0.03756341309 -0.03719871917 0.104
-0.03738106643 -0.03719871917 0.104
-0.03684103976 -0.03684103918 0.103
-0.03666044643 -0.03684103918 0.103
-0.03612567977 -0.03648335919 0.102
-0.03594683977 -0.03648335919 0.102
-0.0354173331 -0.0361256792 0.101
-0.03489133311 -0.0357679992 0.1
-0.03471599978 -0.0357679992 0.1
-0.03419525978 -0.03541031921 0.099
-0.03402167978 -0.03541031921 0.099
-0.03384809978 -0.03541031921 0.099
-0.03333437312 -0.03505263922 0.098
-0.03316254645 -0.03505263922 0.098
-0.03299071979 -0.03505263922 0.098
-0.03281889312 -0.03505263922 0.098
-0.03264706646 -0.03505263922 0.098
-0.03214385979 -0.03469495923 0.097
-0.03197378646 -0.03469495923 0.097
-0.03180371313 -0.03469495923 0.097
-0.0316336398 -0.03469495923 0.097
-0.0311391998 -0.03433727924 0.096
-0.0309708798 -0.03433727924 0.096
-0.0308025598 -0.03433727924 0.096
-0.0306342398 -0.03433727924 0.096
-0.0304659198 -0.03433727924 0.096
-0.0302975998 -0.03433727924 0.096
-0.03012927981 -0.03433727924 0.096
-0.02996095981 -0.03433727924 0.096
-0.02979263981 -0.03433727924 0.096
-0.02931573314 -0.03397959924 0.095
-0.02914916648 -0.03397959924 0.095
-0.02898259981 -0.03397959924 0.095
-0.02881603315 -0.03397959924 0.095
-0.02864946648 -0.03397959924 0.095
-0.02848289982 -0.03397959924 0.095
-0.02831633315 -0.03397959924 0.095
-0.02814976648 -0.03397959924 0.095
-0.02798319982 -0.03397959924 0.095
-0.02781663315 -0.03397959924 0.095
-0.02765006649 -0.03397959924 0.095
-0.02748349982 -0.03397959924 0.095
-0.02731693316 -0.03397959924 0.095
-0.02715036649 -0.03397959924 0.095
-0.02698379983 -0.03397959924 0.095
-0.02681723316 -0.03397959924 0.095
-0.02665066649 -0.03397959924 0.095
-0.02648409983 -0.03397959924 0.095
-0.02631753316 -0.03397959924 0.095
-0.0261509665 -0.03397959924 0.095
-0.02625791983 -0.03433727924 0.096
-0.02608959983 -0.03433727924 0.096
-0.02592127983 -0.03433727924 0.096
-0.02575295983 -0.03433727924 0.096
-0.02558463983 -0.03433727924 0.096
-0.02541631984 -0.03433727924 0.096
-0.02524799984 -0.03433727924 0.096
-0.02507967984 -0.03433727924 0.096
-0.02517085317 -0.03469495923 0.097
-0.02500077984 -0.03469495923 0.097
-0.02483070651 -0.03469495923 0.097
-0.02466063317 -0.03469495923 0.097
-0.02449055984 -0.03469495923 0.097
-0.02432048651 -0.03469495923 0.097
-0.02439938651 -0.03505263922 0.098
-0.02422755984 -0.03505263922 0.098
-0.02405573318 -0.03505263922 0.098
-0.02388390651 -0.03505263922 0.098
-0.02395403985 -0.03541031921 0.099
-0.02378045985 -0.03541031921 0.099
-0.02360687985 -0.03541031921 0.099
-0.02343329985 -0.03541031921 0.099
-0.02325971985 -0.03541031921 0.099
-0.02308613985 -0.03541031921 0.099
-0.02268111985 -0.03505263922 0.098
-0.02227960652 -0.03469495923 0.097
-0.02210953319 -0.03469495923 0.097
-0.02193945986 -0.03469495923 0.097
-0.02154495986 -0.03433727924 0.096
-0.02137663986 -0.03433727924 0.096
-0.02120831986 -0.03433727924 0.096
-0.02103999986 -0.03433727924 0.096
-0.02087167987 -0.03433727924 0.096
-0.02070335987 -0.03433727924 0.096
-0.02053503987 -0.03433727924 0.096
-0.02015456654 -0.03397959924 0.095
-0.01998799987 -0.03397959924 0.095
-0.01982143321 -0.03397959924 0.095
-0.01944797321 -0.03362191925 0.094
-0.01948829987 -0.03397959924 0.095
-0.01952511987 -0.03433727924 0.096
-0.01955843321 -0.03469495923 0.097
-0.01938835987 -0.03469495923 0.097
-0.01941641321 -0.03505263922 0.098
-0.01865546655 -0.03397959924 0.095
-0.01926737988 -0.03541031921 0.099
-0.01793659988 -0.03326423926 0.093
-0.01987578654 -0.03719871917 0.104
-0.01874663988 -0.03541031921 0.099
-0.01857305988 -0.03541031921 0.099
-0.01914289321 -0.03684103918 0.103
-0.01730539989 -0.03362191925 0.094
-0.0001753333322 -0.000357679992 0.001
-0.0003401466645 -0.0007153599841 0.002
-0.0003331333312 -0.0007153599841 0.002
-0.04092805974 -0.089777678 0.251
-0.04032666641 -0.08941999801 0.25
-0.04004788641 -0.089777678 0.251
-0.03897659975 -0.08834695804 0.247
-0.03885561975 -0.08906231802 0.249
-0.03841903975 -0.08906231802 0.249
-0.03782991976 -0.08870463803 0.248
-0.03709351976 -0.08798927804 0.246
-0.03666219976 -0.08798927804 0.246
-0.03637815977 -0.08834695804 0.247
-0.0360906131 -0.08870463803 0.248
-0.03579955977 -0.08906231802 0.249
-0.03536297977 -0.08906231802 0.249
-0.03478613311 -0.08870463803 0.248
-0.03407427978 -0.08798927804 0.246
-0.03364295978 -0.08798927804 0.246
-0.03334664645 -0.08834695804 0.247
-0.03264706646 -0.08763159805 0.245
-0.03221749979 -0.08763159805 0.245
-0.03178793313 -0.08763159805 0.245
-0.03123037313 -0.08727391806 0.244
-0.0311812798 -0.08834695804 0.247
-0.03074820647 -0.08834695804 0.247
-0.03031513314 -0.08834695804 0.247
-0.03000303981 -0.08870463803 0.248
-0.02956821314 -0.08870463803 0.248
-0.02913338648 -0.08870463803 0.248
-0.02858283982 -0.08834695804 0.247
-0.02814976648 -0.08834695804 0.247
-0.02749226649 -0.08763159805 0.245
-0.02706269983 -0.08763159805 0.245
-0.02663313316 -0.08763159805 0.245
-0.02609661316 -0.08727391806 0.244
-0.02566879983 -0.08727391806 0.244
-0.02513753984 -0.08691623807 0.243
-0.02481317317 -0.08727391806 0.244
-0.02438535984 -0.08727391806 0.244
-9.643333271e-05 -0.000357679992 0.001
-9.467999939e-05 -0.000357679992 0.001
-0.0002787799982 -0.001073039976 0.003
-0.0005593133297 -0.0003559266588 0.001
-0.1233890792 -0.07901571824 0.222
-0.1246619992 -0.08008349822 0.225
-0.1237151992 -0.07972757156 0.224
-0.1172664392 -0.07581237831 0.213
-0.1196369459 -0.07759201161 0.218
-0.1165195192 -0.07581237831 0.213
-0.1161460592 -0.07581237831 0.213
-0.1152290659 -0.07545645166 0.212
-0.1148573593 -0.07545645166 0.212
-0.1139456259 -0.075100525 0.211
-0.1130373993 -0.07474459834 0.21
-0.1137422393 -0.07545645166 0.212
-0.1144400659 -0.07616830497 0.214
-0.1140648526 -0.07616830497 0.214
-0.1131583793 -0.07581237831 0.213
-0.1127849193 -0.07581237831 0.213
-0.1124114593 -0.07581237831 0.213
-0.1115119993 -0.07545645166 0.212
-0.1111402926 -0.07545645166 0.212
-0.1118135726 -0.07616830497 0.214
-0.1124798393 -0.07688015829 0.216
-0.1110631459 -0.07616830497 0.214
-0.1143085659 -0.07865979158 0.221
-0.1113436793 -0.07688015829 0.216
-0.1109649593 -0.07688015829 0.216
-0.1146820259 -0.07972757156 0.224
-0.1127586193 -0.07865979158 0.221
-0.1133880659 -0.0793716449 0.223
-0.1165440659 -0.08186313151 0.23
-0.1136159993 -0.08008349822 0.225
-0.1132214993 -0.08008349822 0.225
-0.1128269993 -0.08008349822 0.225
-0.1119327993 -0.07972757156 0.224
-0.1105441593 -0.07901571824 0.222
-0.1086663393 -0.07794793827 0.219
-0.1077879193 -0.07759201161 0.218
-0.1074056926 -0.07759201161 0.218
-0.107023466 -0.07759201161 0.218
-0.1066412393 -0.07759201161 0.218
-0.1077212926 -0.07865979158 0.221
-0.1078194793 -0.07901571824 0.222
-0.1050106393 -0.07723608495 0.217
-0.1027014993 -0.07581237831 0.213
-0.1013672127 -0.075100525 0.211
-0.1009972593 -0.075100525 0.211
-0.100627306 -0.075100525 0.211
-0.1002573527 -0.075100525 0.211
-0.09988739935 -0.075100525 0.211
-0.09951744602 -0.075100525 0.211
-0.09867759936 -0.07474459834 0.21
-0.09830939937 -0.07474459834 0.21
-0.09840758603 -0.075100525 0.211
-0.0980376327 -0.075100525 0.211
-0.09813055937 -0.07545645166 0.212
-0.09821997937 -0.07581237831 0.213
-0.0983058927 -0.07616830497 0.214
-0.09838829936 -0.07652423163 0.215
-0.09846719936 -0.07688015829 0.216
-0.0985425927 -0.07723608495 0.217
-0.09861447936 -0.07759201161 0.218
-0.0982322527 -0.07759201161 0.218
-0.0987477327 -0.07830386493 0.22
-0.09836199936 -0.07830386493 0.22
-0.09753091937 -0.07794793827 0.219
-0.09670334604 -0.07759201161 0.218
-0.09587927938 -0.07723608495 0.217
-0.09549880605 -0.07723608495 0.217
-0.09511833272 -0.07723608495 0.217
-0.09473785939 -0.07723608495 0.217
-0.09435738606 -0.07723608495 0.217
-0.09397691273 -0.07723608495 0.217
-0.0935964394 -0.07723608495 0.217
-0.09321596606 -0.07723608495 0.217
-0.09283549273 -0.07723608495 0.217
-0.0924550194 -0.07723608495 0.217
-0.09207454607 -0.07723608495 0.217
-0.09169407274 -0.07723608495 0.217
-0.0921551994 -0.07794793827 0.219
-0.09219026607 -0.07830386493 0.22
-0.09347370606 -0.07972757156 0.224
-0.0930809594 -0.07972757156 0.224
-0.09392957273 -0.08079535154 0.227
-0.09435563272 -0.08150720485 0.229
-0.09069291941 -0.07901571824 0.222
-0.09030367942 -0.07901571824 0.222
-0.08991443942 -0.07901571824 0.222
-0.08831539943 -0.07794793827 0.219
-0.08913595942 -0.07901571824 0.222
-0.08874671943 -0.07901571824 0.222
-0.04417873971 -0.03950785912 0.111
-0.04358786639 -0.03915193246 0.11
-0.04378949972 -0.03950785912 0.111
-0.04359487972 -0.03950785912 0.111
-0.04340025972 -0.03950785912 0.111
-0.04320563972 -0.03950785912 0.111
-0.04301101972 -0.03950785912 0.111
-0.04281639972 -0.03950785912 0.111
-0.04223779973 -0.03915193246 0.11
-0.04204493306 -0.03915193246 0.11
-0.0418520664 -0.03915193246 0.11
-0.04165919973 -0.03915193246 0.11
-0.04146633307 -0.03915193246 0.11
-0.0412734664 -0.03915193246 0.11
-0.04108059973 -0.03915193246 0.11
-0.04088773307 -0.03915193246 0.11
-0.04106481973 -0.03950785912 0.111
-0.04050199974 -0.03915193246 0.11
-0.03994268641 -0.0387960058 0.109
-0.03975157308 -0.0387960058 0.109
-0.03883457975 -0.03808415249 0.107
-0.03756341309 -0.03701637251 0.104
-0.03702163309 -0.03666044585 0.103
-0.03684103976 -0.03666044585 0.103
-0.03630451977 -0.03630451919 0.102
-0.03612567977 -0.03630451919 0.102
-0.03559441977 -0.03594859253 0.101
-0.0354173331 -0.03594859253 0.101
-0.03489133311 -0.03559266588 0.1
-0.03471599978 -0.03559266588 0.1
-0.03419525978 -0.03523673922 0.099
-0.03402167978 -0.03523673922 0.099
-0.03384809978 -0.03523673922 0.099
-0.03333437312 -0.03488081256 0.098
-0.03316254645 -0.03488081256 0.098
-0.03299071979 -0.03488081256 0.098
-0.03281889312 -0.03488081256 0.098
-0.03231393312 -0.0345248859 0.097
-0.03214385979 -0.0345248859 0.097
-0.03197378646 -0.0345248859 0.097
-0.03180371313 -0.0345248859 0.097
-0.0313075198 -0.03416895924 0.096
-0.0311391998 -0.03416895924 0.096
-0.0309708798 -0.03416895924 0.096
-0.0308025598 -0.03416895924 0.096
-0.0306342398 -0.03416895924 0.096
-0.0304659198 -0.03416895924 0.096
-0.0302975998 -0.03416895924 0.096
-0.03012927981 -0.03416895924 0.096
-0.02964886648 -0.03381303258 0.095
-0.02948229981 -0.03381303258 0.095
-0.02931573314 -0.03381303258 0.095
-0.02914916648 -0.03381303258 0.095
-0.02898259981 -0.03381303258 0.095
-0.02881603315 -0.03381303258 0.095
-0.02864946648 -0.03381303258 0.095
-0.02848289982 -0.03381303258 0.095
-0.02831633315 -0.03381303258 0.095
-0.02814976648 -0.03381303258 0.095
-0.02798319982 -0.03381303258 0.095
-0.02781663315 -0.03381303258 0.095
-0.02765006649 -0.03381303258 0.095
-0.02719419982 -0.03345710592 0.094
-0.02731693316 -0.03381303258 0.095
-0.02715036649 -0.03381303258 0.095
-0.02698379983 -0.03381303258 0.095
-0.02681723316 -0.03381303258 0.095
-0.02665066649 -0.03381303258 0.095
-0.02648409983 -0.03381303258 0.095
-0.02631753316 -0.03381303258 0.095
-0.0261509665 -0.03381303258 0.095
-0.02625791983 -0.03416895924 0.096
-0.02608959983 -0.03416895924 0.096
-0.02592127983 -0.03416895924 0.096
-0.02575295983 -0.03416895924 0.096
-0.02558463983 -0.03416895924 0.096
-0.02541631984 -0.03416895924 0.096
-0.02524799984 -0.03416895924 0.096
-0.02507967984 -0.03416895924 0.096
-0.02517085317 -0.0345248859 0.097
-0.02500077984 -0.0345248859 0.097
-0.02483070651 -0.0345248859 0.097
-0.02466063317 -0.0345248859 0.097
-0.02449055984 -0.0345248859 0.097
-0.02432048651 -0.0345248859 0.097
-0.02439938651 -0.03488081256 0.098
-0.02422755984 -0.03488081256 0.098
-0.02405573318 -0.03488081256 0.098
-0.02388390651 -0.03488081256 0.098
-0.02395403985 -0.03523673922 0.099
-0.02378045985 -0.03523673922 0.099
-0.02360687985 -0.03523673922 0.099
-0.02343329985 -0.03523673922 0.099
-0.02325971985 -0.03523673922 0.099
-0.02308613985 -0.03523673922 0.099
-0.02268111985 -0.03488081256 0.098
-0.02227960652 -0.0345248859 0.097
-0.02210953319 -0.0345248859 0.097
-0.02193945986 -0.0345248859 0.097
-0.02154495986 -0.03416895924 0.096
-0.02137663986 -0.03416895924 0.096
-0.02120831986 -0.03416895924 0.096
-0.02103999986 -0.03416895924 0.096
-0.02087167987 -0.03416895924 0.096
-0.02070335987 -0.03416895924 0.096
-0.02053503987 -0.03416895924 0.096
-0.02015456654 -0.03381303258 0.095
-0.02019839987 -0.03416895924 0.096
-0.01982143321 -0.03381303258 0.095
-0.01965486654 -0.03381303258 0.095
-0.01948829987 -0.03381303258 0.095
-0.01972850654 -0.0345248859 0.097
-0.01976006654 -0.03488081256 0.098
-0.01958823987 -0.03488081256 0.098
-0.01941641321 -0.03488081256 0.098
-0.01963733321 -0.03559266588 0.1
-0.02004585987 -0.03666044585 0.103
-0.01928666654 -0.03559266588 0.1
-0.01911133321 -0.03559266588 0.1
-0.01874663988 -0.03523673922 0.099
-0.01857305988 -0.03523673922 0.099
-0.01784191988 -0.03416895924 0.096
-0.01859409988 -0.03594859253 0.101
-0.0003611866643 -0.0007118533175 0.002
-0.0003506666644 -0.0007118533175 0.002
-0.0001718266656 -0.0003559266588 0.001
-0.04202739973 -0.09076129798 0.255
-0.04060193974 -0.08862573803 0.249
-0.03984274641 -0.08791388471 0.247
-0.03956922641 -0.08826981137 0.248
-0.03850319975 -0.08684610474 0.244
-0.03947980641 -0.09004944466 0.253
-0.03826474642 -0.08826981137 0.248
-0.03767737976 -0.08791388471 0.247
-0.03709351976 -0.08755795805 0.246
-0.03651316643 -0.08720203139 0.245
-0.03608359977 -0.08720203139 0.245
-0.03579955977 -0.08755795805 0.246
-0.03565578644 -0.08826981137 0.248
-0.03522095977 -0.08826981137 0.248
-0.03478613311 -0.08826981137 0.248
-0.03407427978 -0.08755795805 0.246
-0.03364295978 -0.08755795805 0.246
-0.03321163979 -0.08755795805 0.246
-0.03264706646 -0.08720203139 0.245
-0.03221749979 -0.08720203139 0.245
-0.03178793313 -0.08720203139 0.245
-0.03123037313 -0.08684610474 0.244
-0.0309287998 -0.08720203139 0.245
-0.0306237198 -0.08755795805 0.246
-0.03043786647 -0.08826981137 0.248
-0.03000303981 -0.08826981137 0.248
-0.02956821314 -0.08826981137 0.248
-0.02901591315 -0.08791388471 0.247
-0.02835139982 -0.08720203139 0.245
-0.02780786649 -0.08684610474 0.244
-0.02749226649 -0.08720203139 0.245
-0.02706269983 -0.08720203139 0.245
-0.02663313316 -0.08720203139 0.245
-0.0262035665 -0.08720203139 0.245
-0.02577399983 -0.08720203139 0.245
-0.0252409865 -0.08684610474 0.244
-0.02481317317 -0.08684610474 0.244
-0.02438535984 -0.08684610474 0.244
-9.818666603e-05 -0.0003559266588 0.001
-0.0003506666644 -0.001423706635 0.004
-0.000561066663 -0.0003541733255 0.001
-0.001672679989 -0.001062519976 0.003
-0.1239448859 -0.07898065158 0.223
-0.1224457859 -0.07827230493 0.221
-0.1226105992 -0.07862647825 0.222
-0.1211202659 -0.0779181316 0.22
-0.1179905659 -0.07614726497 0.215
-0.1159724793 -0.075084745 0.212
-0.1150554859 -0.07473057167 0.211
-0.1141419993 -0.07437639835 0.21
-0.1132320193 -0.07402222502 0.209
-0.1128655726 -0.07402222502 0.209
-0.1124991259 -0.07402222502 0.209
-0.1126691993 -0.07437639835 0.21
-0.1139052993 -0.07543891832 0.213
-0.1135318393 -0.07543891832 0.213
-0.1131583793 -0.07543891832 0.213
-0.1127849193 -0.07543891832 0.213
-0.1124114593 -0.07543891832 0.213
-0.1115119993 -0.075084745 0.212
-0.1116645393 -0.07543891832 0.213
-0.1118135726 -0.07579309165 0.214
-0.1124798393 -0.0765014383 0.216
-0.1136580793 -0.07756395828 0.219
-0.1117223993 -0.0765014383 0.216
-0.1128901193 -0.07756395828 0.219
-0.1119924126 -0.07720978495 0.218
-0.1131461059 -0.07827230493 0.221
-0.1112279593 -0.07720978495 0.218
-0.1123711326 -0.07827230493 0.221
-0.110463506 -0.07720978495 0.218
-0.1136159993 -0.07968899823 0.225
-0.1132214993 -0.07968899823 0.225
-0.1128269993 -0.07968899823 0.225
-0.1124324993 -0.07968899823 0.225
-0.1110421059 -0.07898065158 0.223
-0.1086663393 -0.07756395828 0.219
-0.1077879193 -0.07720978495 0.218
-0.1074056926 -0.07720978495 0.218
-0.107023466 -0.07720978495 0.218
-0.1066412393 -0.07720978495 0.218
-0.1082087193 -0.07862647825 0.222
-0.108790826 -0.0793348249 0.224
-0.1064623993 -0.0779181316 0.22
-0.103183666 -0.07579309165 0.214
-0.101847626 -0.075084745 0.212
-0.1014759193 -0.075084745 0.212
-0.100627306 -0.07473057167 0.211
-0.1002573527 -0.07473057167 0.211
-0.09988739935 -0.07473057167 0.211
-0.09904579936 -0.07437639835 0.21
-0.09867759936 -0.07437639835 0.21
-0.09830939937 -0.07437639835 0.21
-0.09794119937 -0.07437639835 0.21
-0.0980376327 -0.07473057167 0.211
-0.09766767937 -0.07473057167 0.211
-0.0977588527 -0.075084745 0.212
-0.09784651937 -0.07543891832 0.213
-0.09793067937 -0.07579309165 0.214
-0.0980113327 -0.07614726497 0.215
-0.0985425927 -0.07685561162 0.217
-0.09861447936 -0.07720978495 0.218
-0.0982322527 -0.07720978495 0.218
-0.09829887937 -0.07756395828 0.219
-0.09791489937 -0.07756395828 0.219
-0.09708557271 -0.07720978495 0.218
-0.09670334604 -0.07720978495 0.218
-0.09587927938 -0.07685561162 0.217
-0.09549880605 -0.07685561162 0.217
-0.09467999939 -0.0765014383 0.216
-0.09430127939 -0.0765014383 0.216
-0.09392255939 -0.0765014383 0.216
-0.09397691273 -0.07685561162 0.217
-0.0935964394 -0.07685561162 0.217
-0.09321596606 -0.07685561162 0.217
-0.09283549273 -0.07685561162 0.217
-0.09202895941 -0.0765014383 0.216
-0.09207454607 -0.07685561162 0.217
-0.09169407274 -0.07685561162 0.217
-0.09131359941 -0.07685561162 0.217
-0.09260931274 -0.07827230493 0.221
-0.09180453274 -0.0779181316 0.22
-0.09391203939 -0.08004317155 0.226
-0.09351578606 -0.08004317155 0.226
-0.0927074994 -0.07968899823 0.225
-0.0935438394 -0.0807515182 0.228
-0.09273555273 -0.08039734488 0.227
-0.09030367942 -0.07862647825 0.222
-0.08788933943 -0.07685561162 0.217
-0.09073499941 -0.07968899823 0.225
-0.08793141943 -0.07756395828 0.219
-0.08834695943 -0.07827230493 0.221
-0.04497475304 -0.04002158578 0.113
-0.04556913304 -0.04072993243 0.115
-0.04378949972 -0.03931323913 0.111
-0.04359487972 -0.03931323913 0.111
-0.04340025972 -0.03931323913 0.111
-0.04320563972 -0.03931323913 0.111
-0.04262353306 -0.0389590658 0.11
-0.04243066639 -0.0389590658 0.11
-0.04223779973 -0.0389590658 0.11
-0.04204493306 -0.0389590658 0.11
-0.0418520664 -0.0389590658 0.11
-0.04165919973 -0.0389590658 0.11
-0.04146633307 -0.0389590658 0.11
-0.0412734664 -0.0389590658 0.11
-0.04108059973 -0.0389590658 0.11
-0.04125943973 -0.03931323913 0.111
-0.04106481973 -0.03931323913 0.111
-0.04087019974 -0.03931323913 0.111
-0.04030913307 -0.0389590658 0.11
-0.03975157308 -0.03860489247 0.109
-0.03847163975 -0.0375423725 0.106
-0.03720222643 -0.03647985252 0.103
-0.03666219976 -0.0361256792 0.102
-0.03648335976 -0.0361256792 0.102
-0.03630451977 -0.0361256792 0.102
-0.03577150644 -0.03577150587 0.101
-0.03559441977 -0.03577150587 0.101
-0.0354173331 -0.03577150587 0.101
-0.03489133311 -0.03541733255 0.1
-0.03436883978 -0.03506315922 0.099
-0.03419525978 -0.03506315922 0.099
-0.03402167978 -0.03506315922 0.099
-0.03384809978 -0.03506315922 0.099
-0.03333437312 -0.03470898589 0.098
-0.03316254645 -0.03470898589 0.098
-0.03299071979 -0.03470898589 0.098
-0.03281889312 -0.03470898589 0.098
-0.03231393312 -0.03435481257 0.097
-0.03214385979 -0.03435481257 0.097
-0.03197378646 -0.03435481257 0.097
-0.03180371313 -0.03435481257 0.097
-0.0313075198 -0.03400063924 0.096
-0.0311391998 -0.03400063924 0.096
-0.0309708798 -0.03400063924 0.096
-0.0308025598 -0.03400063924 0.096
-0.0306342398 -0.03400063924 0.096
-0.0304659198 -0.03400063924 0.096
-0.0302975998 -0.03400063924 0.096
-0.03012927981 -0.03400063924 0.096
-0.02964886648 -0.03364646592 0.095
-0.02948229981 -0.03364646592 0.095
-0.02931573314 -0.03364646592 0.095
-0.02914916648 -0.03364646592 0.095
-0.02898259981 -0.03364646592 0.095
-0.02881603315 -0.03364646592 0.095
-0.02864946648 -0.03364646592 0.095
-0.02848289982 -0.03364646592 0.095
-0.02831633315 -0.03364646592 0.095
-0.02814976648 -0.03364646592 0.095
-0.02798319982 -0.03364646592 0.095
-0.02752382649 -0.03329229259 0.094
-0.02735901316 -0.03329229259 0.094
-0.02719419982 -0.03329229259 0.094
-0.02702938649 -0.03329229259 0.094
-0.02686457316 -0.03329229259 0.094
-0.02698379983 -0.03364646592 0.095
-0.02681723316 -0.03364646592 0.095
-0.02665066649 -0.03364646592 0.095
-0.02648409983 -0.03364646592 0.095
-0.02631753316 -0.03364646592 0.095
-0.0261509665 -0.03364646592 0.095
-0.02625791983 -0.03400063924 0.096
-0.02608959983 -0.03400063924 0.096
-0.02592127983 -0.03400063924 0.096
-0.02575295983 -0.03400063924 0.096
-0.02558463983 -0.03400063924 0.096
-0.02541631984 -0.03400063924 0.096
-0.02524799984 -0.03400063924 0.096
-0.0253409265 -0.03435481257 0.097
-0.02517085317 -0.03435481257 0.097
-0.02500077984 -0.03435481257 0.097
-0.02483070651 -0.03435481257 0.097
-0.02466063317 -0.03435481257 0.097
-0.02449055984 -0.03435481257 0.097
-0.02432048651 -0.03435481257 0.097
-0.02439938651 -0.03470898589 0.098
-0.02422755984 -0.03470898589 0.098
-0.02405573318 -0.03470898589 0.098
-0.02388390651 -0.03470898589 0.098
-0.02395403985 -0.03506315922 0.099
-0.02378045985 -0.03506315922 0.099
-0.02360687985 -0.03506315922 0.099
-0.02366999985 -0.03541733255 0.1
-0.02349466651 -0.03541733255 0.1
-0.02308613985 -0.03506315922 0.099
-0.02244967986 -0.03435481257 0.097
-0.02227960652 -0.03435481257 0.097
-0.02210953319 -0.03435481257 0.097
-0.02193945986 -0.03435481257 0.097
-0.02176938653 -0.03435481257 0.097
-0.02137663986 -0.03400063924 0.096
-0.02120831986 -0.03400063924 0.096
-0.02103999986 -0.03400063924 0.096
-0.02087167987 -0.03400063924 0.096
-0.02070335987 -0.03400063924 0.096
-0.02053503987 -0.03400063924 0.096
-0.02036671987 -0.03400063924 0.096
-0.02019839987 -0.03400063924 0.096
-0.02003007987 -0.03400063924 0.096
-0.01986175987 -0.03400063924 0.096
-0.01989857987 -0.03435481257 0.097
-0.01972850654 -0.03435481257 0.097
-0.01976006654 -0.03470898589 0.098
-0.01958823987 -0.03470898589 0.098
-0.01941641321 -0.03470898589 0.098
-0.01885183988 -0.03400063924 0.096
-0.01868351988 -0.03400063924 0.096
-0.01928666654 -0.03541733255 0.1
-0.01872910655 -0.03470898589 0.098
-0.01912535988 -0.03577150587 0.101
-0.01838545321 -0.03470898589 0.098
-0.01858533321 -0.03541733255 0.1
-0.01804179988 -0.03470898589 0.098
-0.0003576799977 -0.0007083466509 0.002
-0.0001735799989 -0.0003541733255 0.001
-0.0003366399978 -0.0007083466509 0.002
-0.04070889307 -0.08748081139 0.247
-0.04076499974 -0.08854333136 0.25
-0.03984274641 -0.08748081139 0.247
-0.03909056641 -0.08677246474 0.245
-0.03929219975 -0.08818915804 0.249
-0.03807538642 -0.08641829141 0.244
-0.03811045309 -0.08748081139 0.247
-0.03752483976 -0.08712663806 0.246
-0.03694273309 -0.08677246474 0.245
-0.0363641331 -0.08641829141 0.244
-0.03593631977 -0.08641829141 0.244
-0.0356540331 -0.08677246474 0.245
-0.0355120131 -0.08748081139 0.247
-0.03522095977 -0.08783498471 0.248
-0.03492639977 -0.08818915804 0.249
-0.03407427978 -0.08712663806 0.246
-0.03364295978 -0.08712663806 0.246
-0.03334664645 -0.08748081139 0.247
-0.03264706646 -0.08677246474 0.245
-0.03221749979 -0.08677246474 0.245
-0.03191767979 -0.08712663806 0.246
-0.0314863598 -0.08712663806 0.246
-0.0309287998 -0.08677246474 0.245
-0.0306237198 -0.08712663806 0.246
-0.03043786647 -0.08783498471 0.248
-0.03012401981 -0.08818915804 0.249
-0.02956821314 -0.08783498471 0.248
-0.02889843981 -0.08712663806 0.246
-0.02835139982 -0.08677246474 0.245
-0.02780786649 -0.08641829141 0.244
-0.02749226649 -0.08677246474 0.245
-0.02706269983 -0.08677246474 0.245
-0.02663313316 -0.08677246474 0.245
-0.0262035665 -0.08677246474 0.245
-0.02577399983 -0.08677246474 0.245
-0.02534443317 -0.08677246474 0.245
-0.02491486651 -0.08677246474 0.245
-0.02438535984 -0.08641829141 0.244
-9.643333271e-05 -0.0003541733255 0.001
-8.76666661e-05 -0.0003541733255 0.001
-0.001118626659 -0.0007048399843 0.002
-0.1241079459 -0.07894207824 0.224
-0.1231628992 -0.07858965825 0.223
-0.1194686259 -0.0764751383 0.217
-0.1168929792 -0.07506545833 0.213
-0.1154254393 -0.07436061835 0.211
-0.1145101993 -0.07400819835 0.21
-0.1135984659 -0.07365577836 0.209
-0.1126902393 -0.07330335837 0.208
-0.1117855193 -0.07295093838 0.207
-0.1114225793 -0.07295093838 0.207
-0.1121326793 -0.07365577836 0.209
-0.1123009993 -0.07400819835 0.21
-0.1129988259 -0.07471303834 0.212
-0.1126271193 -0.07471303834 0.212
-0.1127849193 -0.07506545833 0.213
-0.1124114593 -0.07506545833 0.213
-0.1120379993 -0.07506545833 0.213
-0.1116645393 -0.07506545833 0.213
-0.1123360659 -0.07577029832 0.215
-0.1130005793 -0.0764751383 0.217
-0.1126201059 -0.0764751383 0.217
-0.1127568659 -0.07682755829 0.218
-0.1118591593 -0.0764751383 0.217
-0.1125061393 -0.07717997828 0.219
-0.1126341326 -0.07753239828 0.22
-0.1122483993 -0.07753239828 0.22
-0.1128795993 -0.07823723826 0.222
-0.1114769326 -0.07753239828 0.22
-0.1131110393 -0.07894207824 0.224
-0.1127182926 -0.07894207824 0.224
-0.1133284526 -0.07964691823 0.226
-0.1134318993 -0.07999933822 0.227
-0.1115400526 -0.07894207824 0.224
-0.1091625326 -0.07753239828 0.22
-0.1082823593 -0.07717997828 0.219
-0.108391066 -0.07753239828 0.22
-0.1080053326 -0.07753239828 0.22
-0.1071304193 -0.07717997828 0.219
-0.1077212926 -0.07788481827 0.221
-0.1083051526 -0.07858965825 0.223
-0.1059784793 -0.07717997828 0.219
-0.103183666 -0.07541787832 0.214
-0.101847626 -0.07471303834 0.212
-0.1009972593 -0.07436061835 0.211
-0.1001503994 -0.07400819835 0.21
-0.1002573527 -0.07436061835 0.211
-0.09988739935 -0.07436061835 0.211
-0.09904579936 -0.07400819835 0.21
-0.09867759936 -0.07400819835 0.21
-0.09830939937 -0.07400819835 0.21
-0.09794119937 -0.07400819835 0.21
-0.0980376327 -0.07436061835 0.211
-0.09766767937 -0.07436061835 0.211
-0.09729772604 -0.07436061835 0.211
-0.09738714604 -0.07471303834 0.212
-0.09747305937 -0.07506545833 0.213
-0.09755546604 -0.07541787832 0.214
-0.0985425927 -0.0764751383 0.217
-0.09861447936 -0.07682755829 0.218
-0.0982322527 -0.07682755829 0.218
-0.09785002603 -0.07682755829 0.218
-0.09702069937 -0.0764751383 0.217
-0.09664022604 -0.0764751383 0.217
-0.09625975271 -0.0764751383 0.217
-0.09587927938 -0.0764751383 0.217
-0.09505871939 -0.07612271831 0.216
-0.09467999939 -0.07612271831 0.216
-0.09430127939 -0.07612271831 0.216
-0.09348773273 -0.07577029832 0.215
-0.0935438394 -0.07612271831 0.216
-0.0935964394 -0.0764751383 0.217
-0.09321596606 -0.0764751383 0.217
-0.0924076794 -0.07612271831 0.216
-0.09202895941 -0.07612271831 0.216
-0.09165023941 -0.07612271831 0.216
-0.09169407274 -0.0764751383 0.217
-0.09131359941 -0.0764751383 0.217
-0.09219026607 -0.07753239828 0.22
-0.09222182607 -0.07788481827 0.221
-0.0922498794 -0.07823723826 0.222
-0.09268821273 -0.07894207824 0.224
-0.09229546607 -0.07894207824 0.224
-0.0931335594 -0.07999933822 0.227
-0.09191849941 -0.07929449824 0.225
-0.09233754607 -0.07999933822 0.227
-0.09031945942 -0.07858965825 0.223
-0.08992846609 -0.07858965825 0.223
-0.08953747276 -0.07858965825 0.223
-0.04477311971 -0.03947103912 0.112
-0.04417873971 -0.03911861913 0.111
-0.04438037305 -0.03947103912 0.112
-0.04378949972 -0.03911861913 0.111
-0.04359487972 -0.03911861913 0.111
-0.04340025972 -0.03911861913 0.111
-0.04281639972 -0.03876619914 0.11
-0.04262353306 -0.03876619914 0.11
-0.04204493306 -0.03841377915 0.109
-0.04223779973 -0.03876619914 0.11
-0.04204493306 -0.03876619914 0.11
-0.0418520664 -0.03876619914 0.11
-0.04165919973 -0.03876619914 0.11
-0.04146633307 -0.03876619914 0.11
-0.0412734664 -0.03876619914 0.11
-0.04108059973 -0.03876619914 0.11
-0.04125943973 -0.03911861913 0.111
-0.04106481973 -0.03911861913 0.111
-0.04087019974 -0.03911861913 0.111
-0.04030913307 -0.03876619914 0.11
-0.03975157308 -0.03841377915 0.109
-0.03847163975 -0.03735651917 0.106
-0.03720222643 -0.03629925919 0.103
-0.03666219976 -0.0359468392 0.102
-0.03648335976 -0.0359468392 0.102
-0.03630451977 -0.0359468392 0.102
-0.03612567977 -0.0359468392 0.102
-0.03594683977 -0.0359468392 0.102
-0.0354173331 -0.03559441921 0.101
-0.03489133311 -0.03524199922 0.1
-0.03436883978 -0.03488957922 0.099
-0.03419525978 -0.03488957922 0.099
-0.03402167978 -0.03488957922 0.099
-0.03384809978 -0.03488957922 0.099
-0.03333437312 -0.03453715923 0.098
-0.03316254645 -0.03453715923 0.098
-0.03299071979 -0.03453715923 0.098
-0.03248400646 -0.03418473924 0.097
-0.03231393312 -0.03418473924 0.097
-0.03214385979 -0.03418473924 0.097
-0.03197378646 -0.03418473924 0.097
-0.03180371313 -0.03418473924 0.097
-0.0313075198 -0.03383231925 0.096
-0.0311391998 -0.03383231925 0.096
-0.0309708798 -0.03383231925 0.096
-0.0308025598 -0.03383231925 0.096
-0.0306342398 -0.03383231925 0.096
-0.0304659198 -0.03383231925 0.096
-0.0302975998 -0.03383231925 0.096
-0.02981543314 -0.03347989926 0.095
-0.02964886648 -0.03347989926 0.095
-0.02917195981 -0.03312747926 0.094
-0.02931573314 -0.03347989926 0.095
-0.02914916648 -0.03347989926 0.095
-0.02898259981 -0.03347989926 0.095
-0.02881603315 -0.03347989926 0.095
-0.02864946648 -0.03347989926 0.095
-0.02818307982 -0.03312747926 0.094
-0.02801826649 -0.03312747926 0.094
-0.02785345315 -0.03312747926 0.094
-0.02768863982 -0.03312747926 0.094
-0.02752382649 -0.03312747926 0.094
-0.02735901316 -0.03312747926 0.094
-0.02719419982 -0.03312747926 0.094
-0.02702938649 -0.03312747926 0.094
